15.35947712 -6.5519677 1.31372549
15.57734205 -6.5519677 1.2745098
15.79520697 -6.5519677 1.31372549
16.0130719 -6.5519677 1.31372549
16.23093682 -6.5519677 1.2745098
16.44880174 -6.5519677 1.15686275
16.66666667 -6.5519677 1.07843137
16.88453159 -6.5519677 0.88235294
17.10239651 -6.5519677 0.80392157
17.32026144 -6.5519677 0.7254902
17.53812636 -6.5519677 0.68627451
17.75599129 -6.5519677 0.76470588
17.97385621 -6.5519677 0.84313725
18.19172113 -6.5519677 0.56862745
18.40958606 -6.5519677 0.60784314
18.62745098 -6.5519677 0.60784314
18.8453159 -6.5519677 0.64705882
19.06318083 -6.5519677 0.60784314
19.28104575 -6.5519677 0.64705882
19.49891068 -6.5519677 1.11764706
19.7167756 -6.5519677 1.43137255
19.93464052 -6.5519677 1.47058824
20.15250545 -6.5519677 1.47058824
20.37037037 -6.5519677 1.90196078
20.58823529 -6.5519677 2.25490196
20.80610022 -6.5519677 2.88235294
21.02396514 -6.5519677 3
21.24183007 -6.5519677 3.94117647
21.45969499 -6.5519677 -5
21.67755991 -6.5519677 -5
21.89542484 -6.5519677 -5
24.291939 -6.5519677 -5
24.50980392 -6.5519677 -5
24.72766885 -6.5519677 3.07843137
24.94553377 -6.5519677 3.11764706
25.16339869 -6.5519677 2.17647059
25.38126362 -6.5519677 -1.54901961
25.59912854 -6.5519677 -1.58823529
25.81699346 -6.5519677 -1.15686275
26.03485839 -6.5519677 -0.7254902
26.25272331 -6.5519677 -0.84313725
26.47058824 -6.5519677 -1.03921569
26.68845316 -6.5519677 -0.41176471
26.90631808 -6.5519677 -1.66666667
27.12418301 -6.5519677 -1.54901961
27.34204793 -6.5519677 -1.15686275
27.55991285 -6.5519677 -1
27.77777778 -6.5519677 -0.7254902
27.9956427 -6.5519677 -0.60784314
28.21350763 -6.5519677 -0.33333333
28.43137255 -6.5519677 0.01960784
28.64923747 -6.5519677 -0.17647059
28.8671024 -6.5519677 -0.09803922
29.08496732 -6.5519677 -0.05882353
29.30283224 -6.5519677 -0.21568627
29.52069717 -6.5519677 0.96078431
29.73856209 -6.5519677 1.11764706
29.95642702 -6.5519677 0.37254902
30.17429194 -6.5519677 0.52941176
30.39215686 -6.5519677 0.05882353
30.61002179 -6.5519677 0.1372549
30.82788671 -6.5519677 -0.1372549
31.04575163 -6.5519677 -0.41176471
31.26361656 -6.5519677 -0.1372549
31.48148148 -6.5519677 -0.64705882
31.69934641 -6.5519677 0.68627451
31.91721133 -6.5519677 0.68627451
32.13507625 -6.5519677 -0.29411765
32.35294118 -6.5519677 -0.64705882
32.5708061 -6.5519677 -0.88235294
32.78867102 -6.5519677 -0.84313725
33.00653595 -6.5519677 -0.09803922
33.22440087 -6.5519677 -1.07843137
33.4422658 -6.5519677 -0.64705882
33.66013072 -6.5519677 -0.17647059
33.87799564 -6.5519677 -0.52941176
34.09586057 -6.5519677 -0.17647059
34.31372549 -6.5519677 0.45098039
34.53159041 -6.5519677 3.2745098
34.74945534 -6.5519677 3.11764706
34.96732026 -6.5519677 2.64705882
35.18518519 -6.5519677 2.21568627
35.40305011 -6.5519677 2.25490196
35.62091503 -6.5519677 3.2745098
35.83877996 -6.5519677 2.64705882
36.05664488 -6.5519677 2.56862745
36.2745098 -6.5519677 2.1372549
36.49237473 -6.5519677 2.45098039
36.71023965 -6.5519677 2.52941176
36.92810458 -6.5519677 2.52941176
37.1459695 -6.5519677 2.37254902
37.36383442 -6.5519677 2.1372549
37.58169935 -6.5519677 1.94117647
37.79956427 -6.5519677 1.70588235
38.01742919 -6.5519677 1.31372549
38.23529412 -6.5519677 0.7254902
38.45315904 -6.5519677 0.37254902
38.67102397 -6.5519677 0.25490196
38.88888889 -6.5519677 0.25490196
39.10675381 -6.5519677 0.01960784
39.32461874 -6.5519677 -0.05882353
39.54248366 -6.5519677 -0.01960784
39.76034858 -6.5519677 0.09803922
39.97821351 -6.5519677 0.05882353
40.19607843 -6.5519677 -0.01960784
40.41394336 -6.5519677 0.21568627
40.63180828 -6.5519677 -0.68627451
40.8496732 -6.5519677 -0.80392157
41.06753813 -6.5519677 -0.56862745
41.28540305 -6.5519677 -0.25490196
41.50326797 -6.5519677 0.64705882
41.7211329 -6.5519677 -0.1372549
41.93899782 -6.5519677 1.35294118
42.15686275 -6.5519677 3.78431373
42.37472767 -6.5519677 -5
42.59259259 -6.5519677 -5
42.81045752 -6.5519677 -5
43.02832244 -6.5519677 -5
-24.94553377 -6.33356877 3.90196078
-25.16339869 -6.33356877 -5
-24.72766885 -6.33356877 3.70588235
-24.50980392 -6.33356877 4.17647059
-24.291939 -6.33356877 -5
-24.07407407 -6.33356877 3.58823529
-23.85620915 -6.33356877 0.76470588
-23.63834423 -6.33356877 -2.60784314
-23.4204793 -6.33356877 -2.17647059
-23.20261438 -6.33356877 -2.33333333
-22.98474946 -6.33356877 -1.74509804
-22.76688453 -6.33356877 -1.82352941
-22.54901961 -6.33356877 -1.54901961
-22.33115468 -6.33356877 -1.31372549
-22.11328976 -6.33356877 -1.23529412
-21.89542484 -6.33356877 -1.15686275
-21.67755991 -6.33356877 -1.19607843
-21.45969499 -6.33356877 -1.39215686
-21.24183007 -6.33356877 -1.54901961
-21.02396514 -6.33356877 -1.78431373
-20.80610022 -6.33356877 -1.62745098
-20.58823529 -6.33356877 -1.39215686
-20.37037037 -6.33356877 -1
-20.15250545 -6.33356877 -0.49019608
-19.93464052 -6.33356877 -0.01960784
-19.7167756 -6.33356877 0.29411765
-19.49891068 -6.33356877 0.84313725
-19.28104575 -6.33356877 1.31372549
-19.06318083 -6.33356877 1.39215686
-18.8453159 -6.33356877 1.39215686
-18.62745098 -6.33356877 1.47058824
-18.40958606 -6.33356877 1.39215686
-18.19172113 -6.33356877 1.31372549
-17.97385621 -6.33356877 1.2745098
-17.75599129 -6.33356877 1.31372549
-17.53812636 -6.33356877 1.47058824
-17.32026144 -6.33356877 1.58823529
-17.10239651 -6.33356877 1.94117647
-16.88453159 -6.33356877 1.8627451
-16.66666667 -6.33356877 2.21568627
-16.44880174 -6.33356877 2.76470588
-16.23093682 -6.33356877 2.7254902
-16.0130719 -6.33356877 2.21568627
-15.79520697 -6.33356877 0.49019608
-15.57734205 -6.33356877 -0.84313725
-15.35947712 -6.33356877 -1.66666667
-15.1416122 -6.33356877 -1.39215686
-14.92374728 -6.33356877 -1.2745098
-14.70588235 -6.33356877 -1.62745098
-14.48801743 -6.33356877 -1.62745098
-14.27015251 -6.33356877 -1.62745098
-14.05228758 -6.33356877 -1.62745098
-13.83442266 -6.33356877 -1.74509804
-13.61655773 -6.33356877 -1.62745098
-13.39869281 -6.33356877 -1.15686275
-13.18082789 -6.33356877 -0.84313725
-12.96296296 -6.33356877 -1.11764706
-12.74509804 -6.33356877 -1.31372549
-12.52723312 -6.33356877 -1.35294118
-12.30936819 -6.33356877 -1.15686275
-12.09150327 -6.33356877 -0.92156863
-11.87363834 -6.33356877 -0.84313725
-11.65577342 -6.33356877 -0.7254902
-11.4379085 -6.33356877 -0.60784314
-11.22004357 -6.33356877 -0.33333333
-11.00217865 -6.33356877 0.33333333
-10.78431373 -6.33356877 0.96078431
-10.5664488 -6.33356877 0.92156863
-10.34858388 -6.33356877 1.15686275
-10.13071895 -6.33356877 1.39215686
-9.91285403 -6.33356877 1.62745098
-9.69498911 -6.33356877 1.82352941
-9.47712418 -6.33356877 1.98039216
-9.25925926 -6.33356877 1.90196078
-9.04139434 -6.33356877 1.74509804
-8.82352941 -6.33356877 1.2745098
-8.60566449 -6.33356877 -0.33333333
-8.38779956 -6.33356877 -1.43137255
-8.16993464 -6.33356877 -1.70588235
-7.95206972 -6.33356877 -1
-7.73420479 -6.33356877 -0.21568627
-7.51633987 -6.33356877 0.17647059
-7.29847495 -6.33356877 -0.33333333
-7.08061002 -6.33356877 -0.64705882
-6.8627451 -6.33356877 -0.45098039
-6.64488017 -6.33356877 -0.37254902
-6.42701525 -6.33356877 -0.05882353
-6.20915033 -6.33356877 -0.25490196
-5.9912854 -6.33356877 -0.60784314
-5.77342048 -6.33356877 -0.21568627
-5.55555556 -6.33356877 0.60784314
-5.33769063 -6.33356877 1.66666667
-5.11982571 -6.33356877 1.19607843
-4.90196078 -6.33356877 0.52941176
-4.68409586 -6.33356877 0.17647059
-4.46623094 -6.33356877 0.64705882
-4.24836601 -6.33356877 1.31372549
-4.03050109 -6.33356877 2.37254902
-3.81263617 -6.33356877 2.7254902
-3.59477124 -6.33356877 2.68627451
-3.37690632 -6.33356877 2.80392157
-3.15904139 -6.33356877 2.96078431
-2.94117647 -6.33356877 2.49019608
-2.72331155 -6.33356877 2.7254902
-2.50544662 -6.33356877 2.56862745
-2.2875817 -6.33356877 2.33333333
-2.06971678 -6.33356877 2.21568627
-1.85185185 -6.33356877 2.09803922
-1.63398693 -6.33356877 1.94117647
-1.416122 -6.33356877 2.49019608
-1.19825708 -6.33356877 2.41176471
-0.98039216 -6.33356877 2.29411765
-0.76252723 -6.33356877 2.21568627
-0.54466231 -6.33356877 2.09803922
-0.32679739 -6.33356877 1.90196078
-0.10893246 -6.33356877 1.62745098
0.10893246 -6.33356877 0.84313725
0.32679739 -6.33356877 0.09803922
0.54466231 -6.33356877 -1.50980392
0.76252723 -6.33356877 -3.23529412
0.98039216 -6.33356877 -3.31372549
1.19825708 -6.33356877 -2.84313725
1.416122 -6.33356877 -2.49019608
1.63398693 -6.33356877 -2.17647059
1.85185185 -6.33356877 -2.33333333
2.06971678 -6.33356877 -2.45098039
2.2875817 -6.33356877 -2.1372549
2.50544662 -6.33356877 -1.82352941
2.72331155 -6.33356877 -1.47058824
2.94117647 -6.33356877 -1
3.15904139 -6.33356877 -0.7254902
3.37690632 -6.33356877 -0.7254902
3.59477124 -6.33356877 -0.80392157
3.81263617 -6.33356877 -1
4.03050109 -6.33356877 -1.31372549
4.24836601 -6.33356877 -1.66666667
4.46623094 -6.33356877 -1.98039216
4.68409586 -6.33356877 -2.09803922
4.90196078 -6.33356877 -2.1372549
5.11982571 -6.33356877 -2.29411765
5.33769063 -6.33356877 -2.05882353
5.55555556 -6.33356877 -1.82352941
5.77342048 -6.33356877 -1.70588235
5.9912854 -6.33356877 -1.58823529
6.20915033 -6.33356877 -1.43137255
6.42701525 -6.33356877 -1.23529412
6.64488017 -6.33356877 -1.19607843
6.8627451 -6.33356877 -1.11764706
7.08061002 -6.33356877 -0.96078431
7.29847495 -6.33356877 -0.88235294
7.51633987 -6.33356877 -0.84313725
7.73420479 -6.33356877 -0.25490196
7.95206972 -6.33356877 -0.33333333
8.16993464 -6.33356877 -0.49019608
8.38779956 -6.33356877 -0.56862745
8.60566449 -6.33356877 -0.68627451
8.82352941 -6.33356877 -0.76470588
9.04139434 -6.33356877 -0.84313725
9.25925926 -6.33356877 -0.92156863
9.47712418 -6.33356877 -1
9.69498911 -6.33356877 -1.07843137
9.91285403 -6.33356877 -1.15686275
10.13071895 -6.33356877 -1.23529412
10.34858388 -6.33356877 -1.43137255
10.5664488 -6.33356877 -1.31372549
10.78431373 -6.33356877 -1.19607843
11.00217865 -6.33356877 -1.23529412
11.22004357 -6.33356877 -1.39215686
11.4379085 -6.33356877 -1.54901961
11.65577342 -6.33356877 -1.2745098
11.87363834 -6.33356877 -1.19607843
12.09150327 -6.33356877 -1.03921569
12.30936819 -6.33356877 -0.96078431
12.52723312 -6.33356877 -0.92156863
12.74509804 -6.33356877 -0.92156863
12.96296296 -6.33356877 -0.60784314
13.18082789 -6.33356877 -0.52941176
13.39869281 -6.33356877 -0.45098039
13.61655773 -6.33356877 -0.41176471
13.83442266 -6.33356877 -0.25490196
14.05228758 -6.33356877 -0.05882353
14.27015251 -6.33356877 0.33333333
14.48801743 -6.33356877 0.33333333
14.70588235 -6.33356877 0.45098039
14.92374728 -6.33356877 0.7254902
15.1416122 -6.33356877 1.03921569
15.35947712 -6.33356877 1.31372549
15.57734205 -6.33356877 1.35294118
15.79520697 -6.33356877 1.35294118
16.0130719 -6.33356877 1.43137255
16.23093682 -6.33356877 1.39215686
16.44880174 -6.33356877 1.39215686
16.66666667 -6.33356877 1.35294118
16.88453159 -6.33356877 1.2745098
17.10239651 -6.33356877 1.19607843
17.32026144 -6.33356877 1.15686275
17.53812636 -6.33356877 1.03921569
17.75599129 -6.33356877 1.03921569
17.97385621 -6.33356877 1.03921569
18.19172113 -6.33356877 0.76470588
18.40958606 -6.33356877 0.76470588
18.62745098 -6.33356877 0.88235294
18.8453159 -6.33356877 0.96078431
19.06318083 -6.33356877 1
19.28104575 -6.33356877 1.07843137
19.49891068 -6.33356877 1.35294118
19.7167756 -6.33356877 1.66666667
19.93464052 -6.33356877 2.1372549
20.15250545 -6.33356877 2.56862745
20.37037037 -6.33356877 2.84313725
20.58823529 -6.33356877 2.96078431
20.80610022 -6.33356877 3.07843137
21.02396514 -6.33356877 3.94117647
21.24183007 -6.33356877 4.49019608
21.45969499 -6.33356877 -5
24.72766885 -6.33356877 2.45098039
24.50980392 -6.33356877 -5
24.94553377 -6.33356877 3.07843137
25.16339869 -6.33356877 3.43137255
25.38126362 -6.33356877 -1.58823529
25.59912854 -6.33356877 -1.98039216
25.81699346 -6.33356877 -1.15686275
26.03485839 -6.33356877 -0.60784314
26.25272331 -6.33356877 -1
26.47058824 -6.33356877 -0.84313725
26.68845316 -6.33356877 -0.41176471
26.90631808 -6.33356877 -1.35294118
27.12418301 -6.33356877 -1.78431373
27.34204793 -6.33356877 -0.84313725
27.55991285 -6.33356877 -1.15686275
27.77777778 -6.33356877 -1.11764706
27.9956427 -6.33356877 -0.64705882
28.21350763 -6.33356877 -0.68627451
28.43137255 -6.33356877 -0.1372549
28.64923747 -6.33356877 -0.33333333
28.8671024 -6.33356877 -0.05882353
29.08496732 -6.33356877 -0.45098039
29.30283224 -6.33356877 -0.1372549
29.52069717 -6.33356877 0.68627451
29.73856209 -6.33356877 0.7254902
29.95642702 -6.33356877 0.60784314
30.17429194 -6.33356877 0.21568627
30.39215686 -6.33356877 -0.05882353
30.61002179 -6.33356877 0.21568627
30.82788671 -6.33356877 -0.33333333
31.04575163 -6.33356877 -0.49019608
31.26361656 -6.33356877 1.03921569
31.48148148 -6.33356877 -0.68627451
31.69934641 -6.33356877 2.29411765
31.91721133 -6.33356877 -0.25490196
32.13507625 -6.33356877 0.25490196
32.35294118 -6.33356877 -0.52941176
32.5708061 -6.33356877 -0.68627451
32.78867102 -6.33356877 -0.29411765
33.00653595 -6.33356877 -1.11764706
33.22440087 -6.33356877 -0.76470588
33.4422658 -6.33356877 0.01960784
33.66013072 -6.33356877 -0.49019608
33.87799564 -6.33356877 -0.64705882
34.09586057 -6.33356877 -0.56862745
34.31372549 -6.33356877 -0.37254902
34.53159041 -6.33356877 2.29411765
34.74945534 -6.33356877 3.35294118
34.96732026 -6.33356877 2.76470588
35.18518519 -6.33356877 2.21568627
35.40305011 -6.33356877 2.76470588
35.62091503 -6.33356877 2.96078431
35.83877996 -6.33356877 2.80392157
36.05664488 -6.33356877 2.37254902
36.2745098 -6.33356877 2.25490196
36.49237473 -6.33356877 2.45098039
36.71023965 -6.33356877 2.7254902
36.92810458 -6.33356877 2.7254902
37.1459695 -6.33356877 2.25490196
37.36383442 -6.33356877 1.66666667
37.58169935 -6.33356877 1.39215686
37.79956427 -6.33356877 0.96078431
38.01742919 -6.33356877 0.80392157
38.23529412 -6.33356877 0.52941176
38.45315904 -6.33356877 0.21568627
38.67102397 -6.33356877 -0.01960784
38.88888889 -6.33356877 -0.17647059
39.10675381 -6.33356877 -0.1372549
39.32461874 -6.33356877 -0.1372549
39.54248366 -6.33356877 -0.05882353
39.76034858 -6.33356877 0.01960784
39.97821351 -6.33356877 -0.05882353
40.19607843 -6.33356877 -0.25490196
40.41394336 -6.33356877 -1
40.63180828 -6.33356877 -0.37254902
40.8496732 -6.33356877 -0.01960784
41.06753813 -6.33356877 -0.1372549
41.28540305 -6.33356877 -0.17647059
41.50326797 -6.33356877 -0.21568627
41.7211329 -6.33356877 2.05882353
41.93899782 -6.33356877 3
42.15686275 -6.33356877 4.80392157
42.37472767 -6.33356877 4.45098039
42.59259259 -6.33356877 -5
-24.94553377 -6.11516985 -5
-24.72766885 -6.11516985 3.31372549
-24.50980392 -6.11516985 5
-24.291939 -6.11516985 4.17647059
-24.07407407 -6.11516985 0.52941176
-23.85620915 -6.11516985 -2.33333333
-23.63834423 -6.11516985 -1.62745098
-23.4204793 -6.11516985 -2.76470588
-23.20261438 -6.11516985 -2.05882353
-22.98474946 -6.11516985 -3
-22.76688453 -6.11516985 -2.7254902
-22.54901961 -6.11516985 -2.84313725
-22.33115468 -6.11516985 -2.64705882
-22.11328976 -6.11516985 -2.33333333
-21.89542484 -6.11516985 -1.8627451
-21.67755991 -6.11516985 -1.47058824
-21.45969499 -6.11516985 -1.2745098
-21.24183007 -6.11516985 -1.15686275
-21.02396514 -6.11516985 -0.56862745
-20.80610022 -6.11516985 -0.29411765
-20.58823529 -6.11516985 -0.09803922
-20.37037037 -6.11516985 -0.09803922
-20.15250545 -6.11516985 -0.17647059
-19.93464052 -6.11516985 -0.17647059
-19.7167756 -6.11516985 -0.09803922
-19.49891068 -6.11516985 -0.29411765
-19.28104575 -6.11516985 -0.7254902
-19.06318083 -6.11516985 -0.96078431
-18.8453159 -6.11516985 -0.60784314
-18.62745098 -6.11516985 -0.09803922
-18.40958606 -6.11516985 0.29411765
-18.19172113 -6.11516985 0.56862745
-17.97385621 -6.11516985 0.80392157
-17.75599129 -6.11516985 0.92156863
-17.53812636 -6.11516985 1
-17.32026144 -6.11516985 1.07843137
-17.10239651 -6.11516985 1.31372549
-16.88453159 -6.11516985 1.54901961
-16.66666667 -6.11516985 1.47058824
-16.44880174 -6.11516985 0.88235294
-16.23093682 -6.11516985 -0.01960784
-16.0130719 -6.11516985 -0.64705882
-15.79520697 -6.11516985 -0.76470588
-15.57734205 -6.11516985 -1.47058824
-15.35947712 -6.11516985 -1.78431373
-15.1416122 -6.11516985 -1.70588235
-14.92374728 -6.11516985 -1.78431373
-14.70588235 -6.11516985 -1.82352941
-14.48801743 -6.11516985 -1.47058824
-14.27015251 -6.11516985 -1.90196078
-14.05228758 -6.11516985 -1.74509804
-13.83442266 -6.11516985 -1.19607843
-13.61655773 -6.11516985 -0.92156863
-13.39869281 -6.11516985 -0.76470588
-13.18082789 -6.11516985 -1.2745098
-12.96296296 -6.11516985 -1.39215686
-12.74509804 -6.11516985 -0.84313725
-12.52723312 -6.11516985 -0.76470588
-12.30936819 -6.11516985 -1.07843137
-12.09150327 -6.11516985 -0.7254902
-11.87363834 -6.11516985 -0.80392157
-11.65577342 -6.11516985 0.05882353
-11.4379085 -6.11516985 0.88235294
-11.22004357 -6.11516985 1.23529412
-11.00217865 -6.11516985 1.47058824
-10.78431373 -6.11516985 1.70588235
-10.5664488 -6.11516985 1
-10.34858388 -6.11516985 1.58823529
-10.13071895 -6.11516985 2.25490196
-9.91285403 -6.11516985 2.37254902
-9.69498911 -6.11516985 1.94117647
-9.47712418 -6.11516985 1.31372549
-9.25925926 -6.11516985 1.15686275
-9.04139434 -6.11516985 -0.68627451
-8.82352941 -6.11516985 -2.09803922
-8.60566449 -6.11516985 -1.54901961
-8.38779956 -6.11516985 -0.92156863
-8.16993464 -6.11516985 1.50980392
-7.95206972 -6.11516985 2.01960784
-7.73420479 -6.11516985 -0.09803922
-7.51633987 -6.11516985 -0.68627451
-7.29847495 -6.11516985 0.68627451
-7.08061002 -6.11516985 1.07843137
-6.8627451 -6.11516985 0.25490196
-6.64488017 -6.11516985 -0.41176471
-6.42701525 -6.11516985 0.37254902
-6.20915033 -6.11516985 1.50980392
-5.9912854 -6.11516985 2.17647059
-5.77342048 -6.11516985 2.09803922
-5.55555556 -6.11516985 1.66666667
-5.33769063 -6.11516985 0.1372549
-5.11982571 -6.11516985 0.25490196
-4.90196078 -6.11516985 1.23529412
-4.68409586 -6.11516985 2.64705882
-4.46623094 -6.11516985 3.15686275
-4.24836601 -6.11516985 2.64705882
-4.03050109 -6.11516985 2.56862745
-3.81263617 -6.11516985 2.56862745
-3.59477124 -6.11516985 2.17647059
-3.37690632 -6.11516985 2.09803922
-3.15904139 -6.11516985 2.29411765
-2.94117647 -6.11516985 2.01960784
-2.72331155 -6.11516985 1.90196078
-2.50544662 -6.11516985 1.78431373
-2.2875817 -6.11516985 1.78431373
-2.06971678 -6.11516985 2.05882353
-1.85185185 -6.11516985 2.45098039
-1.63398693 -6.11516985 2.7254902
-1.416122 -6.11516985 1.82352941
-1.19825708 -6.11516985 1.58823529
-0.98039216 -6.11516985 1.35294118
-0.76252723 -6.11516985 1.35294118
-0.54466231 -6.11516985 1.62745098
-0.32679739 -6.11516985 1.8627451
-0.10893246 -6.11516985 1.54901961
0.10893246 -6.11516985 1.58823529
0.32679739 -6.11516985 0.52941176
0.54466231 -6.11516985 -1.74509804
0.76252723 -6.11516985 -3.11764706
0.98039216 -6.11516985 -2.84313725
1.19825708 -6.11516985 -2.33333333
1.416122 -6.11516985 -2.41176471
1.63398693 -6.11516985 -2.33333333
1.85185185 -6.11516985 -2.09803922
2.06971678 -6.11516985 -1.90196078
2.2875817 -6.11516985 -1.78431373
2.50544662 -6.11516985 -1.8627451
2.72331155 -6.11516985 -1.98039216
2.94117647 -6.11516985 -2.1372549
3.15904139 -6.11516985 -2.29411765
3.37690632 -6.11516985 -2.45098039
3.59477124 -6.11516985 -2.52941176
3.81263617 -6.11516985 -2.25490196
4.03050109 -6.11516985 -2.09803922
4.24836601 -6.11516985 -1.94117647
4.46623094 -6.11516985 -1.82352941
4.68409586 -6.11516985 -1.90196078
4.90196078 -6.11516985 -1.94117647
5.11982571 -6.11516985 -1.90196078
5.33769063 -6.11516985 -1.8627451
5.55555556 -6.11516985 -1.8627451
5.77342048 -6.11516985 -1.74509804
5.9912854 -6.11516985 -1.47058824
6.20915033 -6.11516985 -1.15686275
6.42701525 -6.11516985 -0.96078431
6.64488017 -6.11516985 -0.92156863
6.8627451 -6.11516985 -0.80392157
7.08061002 -6.11516985 -0.60784314
7.29847495 -6.11516985 -0.49019608
7.51633987 -6.11516985 -0.37254902
7.73420479 -6.11516985 -0.96078431
7.95206972 -6.11516985 -1.07843137
8.16993464 -6.11516985 -1.19607843
8.38779956 -6.11516985 -1.23529412
8.60566449 -6.11516985 -1.15686275
8.82352941 -6.11516985 -1.07843137
9.04139434 -6.11516985 -1.19607843
9.25925926 -6.11516985 -1.15686275
9.47712418 -6.11516985 -1.03921569
9.69498911 -6.11516985 -1
9.91285403 -6.11516985 -0.92156863
10.13071895 -6.11516985 -0.92156863
10.34858388 -6.11516985 -1.07843137
10.5664488 -6.11516985 -1.03921569
10.78431373 -6.11516985 -1
11.00217865 -6.11516985 -0.92156863
11.22004357 -6.11516985 -0.84313725
11.4379085 -6.11516985 -0.80392157
11.65577342 -6.11516985 -0.80392157
11.87363834 -6.11516985 -0.7254902
12.09150327 -6.11516985 -0.64705882
12.30936819 -6.11516985 -0.60784314
12.52723312 -6.11516985 -0.60784314
12.74509804 -6.11516985 -0.64705882
12.96296296 -6.11516985 -0.25490196
13.18082789 -6.11516985 -0.09803922
13.39869281 -6.11516985 -0.01960784
13.61655773 -6.11516985 0.05882353
13.83442266 -6.11516985 0.25490196
14.05228758 -6.11516985 0.45098039
14.27015251 -6.11516985 0.41176471
14.48801743 -6.11516985 0.76470588
14.70588235 -6.11516985 1.19607843
14.92374728 -6.11516985 1.47058824
15.1416122 -6.11516985 1.50980392
15.35947712 -6.11516985 1.43137255
15.57734205 -6.11516985 1.82352941
15.79520697 -6.11516985 1.78431373
16.0130719 -6.11516985 1.70588235
16.23093682 -6.11516985 1.70588235
16.44880174 -6.11516985 1.66666667
16.66666667 -6.11516985 1.62745098
16.88453159 -6.11516985 1.58823529
17.10239651 -6.11516985 1.54901961
17.32026144 -6.11516985 1.50980392
17.53812636 -6.11516985 1.43137255
17.75599129 -6.11516985 1.35294118
17.97385621 -6.11516985 1.31372549
18.19172113 -6.11516985 1.54901961
18.40958606 -6.11516985 1.58823529
18.62745098 -6.11516985 1.50980392
18.8453159 -6.11516985 1.58823529
19.06318083 -6.11516985 1.70588235
19.28104575 -6.11516985 1.74509804
19.49891068 -6.11516985 1.94117647
19.7167756 -6.11516985 2.05882353
19.93464052 -6.11516985 2.41176471
20.15250545 -6.11516985 2.60784314
20.37037037 -6.11516985 2.52941176
20.58823529 -6.11516985 2.56862745
20.80610022 -6.11516985 3.98039216
21.02396514 -6.11516985 4.29411765
21.24183007 -6.11516985 -5
21.45969499 -6.11516985 -5
24.72766885 -6.11516985 3.78431373
24.50980392 -6.11516985 -5
24.94553377 -6.11516985 3.58823529
25.16339869 -6.11516985 3.54901961
25.38126362 -6.11516985 -1.58823529
25.59912854 -6.11516985 -1.50980392
25.81699346 -6.11516985 -1.39215686
26.03485839 -6.11516985 -0.7254902
26.25272331 -6.11516985 -1
26.47058824 -6.11516985 -0.84313725
26.68845316 -6.11516985 -0.76470588
26.90631808 -6.11516985 -1.03921569
27.12418301 -6.11516985 -2.09803922
27.34204793 -6.11516985 -0.80392157
27.55991285 -6.11516985 -1.43137255
27.77777778 -6.11516985 -1.47058824
27.9956427 -6.11516985 -0.52941176
28.21350763 -6.11516985 -0.96078431
28.43137255 -6.11516985 -0.21568627
28.64923747 -6.11516985 -0.41176471
28.8671024 -6.11516985 0.05882353
29.08496732 -6.11516985 -0.64705882
29.30283224 -6.11516985 0.09803922
29.52069717 -6.11516985 0.41176471
29.73856209 -6.11516985 0.25490196
29.95642702 -6.11516985 0.84313725
30.17429194 -6.11516985 -0.01960784
30.39215686 -6.11516985 -0.17647059
30.61002179 -6.11516985 0.1372549
30.82788671 -6.11516985 -0.45098039
31.04575163 -6.11516985 -0.09803922
31.26361656 -6.11516985 0.84313725
31.48148148 -6.11516985 -0.56862745
31.69934641 -6.11516985 1.35294118
31.91721133 -6.11516985 -0.49019608
32.13507625 -6.11516985 -0.37254902
32.35294118 -6.11516985 -1.23529412
32.5708061 -6.11516985 -0.17647059
32.78867102 -6.11516985 -0.76470588
33.00653595 -6.11516985 -1.15686275
33.22440087 -6.11516985 0.1372549
33.4422658 -6.11516985 -0.41176471
33.66013072 -6.11516985 -0.52941176
33.87799564 -6.11516985 -0.41176471
34.09586057 -6.11516985 -0.56862745
34.31372549 -6.11516985 -0.37254902
34.53159041 -6.11516985 0.80392157
34.74945534 -6.11516985 3.07843137
34.96732026 -6.11516985 2.88235294
35.18518519 -6.11516985 2.25490196
35.40305011 -6.11516985 3.15686275
35.62091503 -6.11516985 2.7254902
35.83877996 -6.11516985 2.80392157
36.05664488 -6.11516985 2.37254902
36.2745098 -6.11516985 2.56862745
36.49237473 -6.11516985 2.92156863
36.71023965 -6.11516985 2.45098039
36.92810458 -6.11516985 1.90196078
37.1459695 -6.11516985 1.39215686
37.36383442 -6.11516985 1.03921569
37.58169935 -6.11516985 0.88235294
37.79956427 -6.11516985 0.96078431
38.01742919 -6.11516985 0.60784314
38.23529412 -6.11516985 0.17647059
38.45315904 -6.11516985 -0.09803922
38.67102397 -6.11516985 -0.17647059
38.88888889 -6.11516985 -0.1372549
39.10675381 -6.11516985 -0.1372549
39.32461874 -6.11516985 -0.21568627
39.54248366 -6.11516985 -0.17647059
39.76034858 -6.11516985 -0.09803922
39.97821351 -6.11516985 -0.17647059
40.19607843 -6.11516985 -0.33333333
40.41394336 -6.11516985 0.56862745
40.63180828 -6.11516985 -0.41176471
40.8496732 -6.11516985 -0.37254902
41.06753813 -6.11516985 -0.68627451
41.28540305 -6.11516985 0.52941176
41.50326797 -6.11516985 2.17647059
41.7211329 -6.11516985 3.78431373
41.93899782 -6.11516985 -5
42.15686275 -6.11516985 5
42.37472767 -6.11516985 4.68627451
42.59259259 -6.11516985 -5
-25.16339869 -6.11516985 -5
-24.94553377 -5.89677093 1.66666667
-25.16339869 -5.89677093 -5
-24.72766885 -5.89677093 3.70588235
-24.50980392 -5.89677093 -5
-24.291939 -5.89677093 -1
-24.07407407 -5.89677093 -2.56862745
-23.85620915 -5.89677093 -2.09803922
-23.63834423 -5.89677093 -2.76470588
-23.4204793 -5.89677093 -1.82352941
-23.20261438 -5.89677093 -2.96078431
-22.98474946 -5.89677093 -2.49019608
-22.76688453 -5.89677093 -2.41176471
-22.54901961 -5.89677093 -2.52941176
-22.33115468 -5.89677093 -2.60784314
-22.11328976 -5.89677093 -2.56862745
-21.89542484 -5.89677093 -2.49019608
-21.67755991 -5.89677093 -2.52941176
-21.45969499 -5.89677093 -2.56862745
-21.24183007 -5.89677093 -2.60784314
-21.02396514 -5.89677093 -2.37254902
-20.80610022 -5.89677093 -2.41176471
-20.58823529 -5.89677093 -2.41176471
-20.37037037 -5.89677093 -2.45098039
-20.15250545 -5.89677093 -2.25490196
-19.93464052 -5.89677093 -2.01960784
-19.7167756 -5.89677093 -1.94117647
-19.49891068 -5.89677093 -1.50980392
-19.28104575 -5.89677093 -1
-19.06318083 -5.89677093 -0.52941176
-18.8453159 -5.89677093 0.17647059
-18.62745098 -5.89677093 0.76470588
-18.40958606 -5.89677093 0.92156863
-18.19172113 -5.89677093 1.19607843
-17.97385621 -5.89677093 1.39215686
-17.75599129 -5.89677093 1.39215686
-17.53812636 -5.89677093 1.35294118
-17.32026144 -5.89677093 1.47058824
-17.10239651 -5.89677093 1.50980392
-16.88453159 -5.89677093 1.50980392
-16.66666667 -5.89677093 1
-16.44880174 -5.89677093 0.05882353
-16.23093682 -5.89677093 -0.37254902
-16.0130719 -5.89677093 -0.29411765
-15.79520697 -5.89677093 -1.07843137
-15.57734205 -5.89677093 -1.2745098
-15.35947712 -5.89677093 -1.19607843
-15.1416122 -5.89677093 -1.15686275
-14.92374728 -5.89677093 -1.39215686
-14.70588235 -5.89677093 -1.31372549
-14.48801743 -5.89677093 -1.66666667
-14.27015251 -5.89677093 -1.62745098
-14.05228758 -5.89677093 -1.19607843
-13.83442266 -5.89677093 -0.92156863
-13.61655773 -5.89677093 -1.19607843
-13.39869281 -5.89677093 -1.35294118
-13.18082789 -5.89677093 -1
-12.96296296 -5.89677093 -0.49019608
-12.74509804 -5.89677093 -0.41176471
-12.52723312 -5.89677093 -0.76470588
-12.30936819 -5.89677093 -0.56862745
-12.09150327 -5.89677093 0.01960784
-11.87363834 -5.89677093 1.23529412
-11.65577342 -5.89677093 1.74509804
-11.4379085 -5.89677093 1.94117647
-11.22004357 -5.89677093 1.70588235
-11.00217865 -5.89677093 1.58823529
-10.78431373 -5.89677093 1.70588235
-10.5664488 -5.89677093 2.41176471
-10.34858388 -5.89677093 2.1372549
-10.13071895 -5.89677093 1.94117647
-9.91285403 -5.89677093 1.78431373
-9.69498911 -5.89677093 1.19607843
-9.47712418 -5.89677093 0.52941176
-9.25925926 -5.89677093 -1.58823529
-9.04139434 -5.89677093 -1.11764706
-8.82352941 -5.89677093 -0.37254902
-8.60566449 -5.89677093 0.7254902
-8.38779956 -5.89677093 1.94117647
-8.16993464 -5.89677093 1.23529412
-7.95206972 -5.89677093 0.96078431
-7.73420479 -5.89677093 1.47058824
-7.51633987 -5.89677093 2.25490196
-7.29847495 -5.89677093 2.33333333
-7.08061002 -5.89677093 1.8627451
-6.8627451 -5.89677093 1.62745098
-6.64488017 -5.89677093 2.56862745
-6.42701525 -5.89677093 2.52941176
-6.20915033 -5.89677093 2.09803922
-5.9912854 -5.89677093 1.35294118
-5.77342048 -5.89677093 1.15686275
-5.55555556 -5.89677093 1.50980392
-5.33769063 -5.89677093 2.41176471
-5.11982571 -5.89677093 2.76470588
-4.90196078 -5.89677093 2.7254902
-4.68409586 -5.89677093 2.17647059
-4.46623094 -5.89677093 1.90196078
-4.24836601 -5.89677093 1.90196078
-4.03050109 -5.89677093 1.66666667
-3.81263617 -5.89677093 1.8627451
-3.59477124 -5.89677093 1.82352941
-3.37690632 -5.89677093 1.66666667
-3.15904139 -5.89677093 1.70588235
-2.94117647 -5.89677093 1.94117647
-2.72331155 -5.89677093 2.37254902
-2.50544662 -5.89677093 2.49019608
-2.2875817 -5.89677093 2.56862745
-2.06971678 -5.89677093 2.25490196
-1.85185185 -5.89677093 1.66666667
-1.63398693 -5.89677093 1.19607843
-1.416122 -5.89677093 1.39215686
-1.19825708 -5.89677093 1.74509804
-0.98039216 -5.89677093 1.98039216
-0.76252723 -5.89677093 1.70588235
-0.54466231 -5.89677093 1.15686275
-0.32679739 -5.89677093 0.80392157
-0.10893246 -5.89677093 0.37254902
0.10893246 -5.89677093 -0.88235294
0.32679739 -5.89677093 -2.33333333
0.54466231 -5.89677093 -2.84313725
0.76252723 -5.89677093 -2.49019608
0.98039216 -5.89677093 -2.05882353
1.19825708 -5.89677093 -2.25490196
1.416122 -5.89677093 -2.1372549
1.63398693 -5.89677093 -2.1372549
1.85185185 -5.89677093 -2.17647059
2.06971678 -5.89677093 -2.09803922
2.2875817 -5.89677093 -2.09803922
2.50544662 -5.89677093 -2.29411765
2.72331155 -5.89677093 -2.49019608
2.94117647 -5.89677093 -2.64705882
3.15904139 -5.89677093 -2.52941176
3.37690632 -5.89677093 -2.1372549
3.59477124 -5.89677093 -1.82352941
3.81263617 -5.89677093 -2.01960784
4.03050109 -5.89677093 -1.98039216
4.24836601 -5.89677093 -1.90196078
4.46623094 -5.89677093 -1.78431373
4.68409586 -5.89677093 -1.66666667
4.90196078 -5.89677093 -1.54901961
5.11982571 -5.89677093 -1.54901961
5.33769063 -5.89677093 -1.31372549
5.55555556 -5.89677093 -1.23529412
5.77342048 -5.89677093 -1.43137255
5.9912854 -5.89677093 -1.58823529
6.20915033 -5.89677093 -1.66666667
6.42701525 -5.89677093 -1.66666667
6.64488017 -5.89677093 -1.39215686
6.8627451 -5.89677093 -1.15686275
7.08061002 -5.89677093 -1.11764706
7.29847495 -5.89677093 -1.39215686
7.51633987 -5.89677093 -1.66666667
7.73420479 -5.89677093 -1.19607843
7.95206972 -5.89677093 -1.15686275
8.16993464 -5.89677093 -1.11764706
8.38779956 -5.89677093 -1.07843137
8.60566449 -5.89677093 -1.03921569
8.82352941 -5.89677093 -1
9.04139434 -5.89677093 -1
9.25925926 -5.89677093 -0.96078431
9.47712418 -5.89677093 -0.84313725
9.69498911 -5.89677093 -0.7254902
9.91285403 -5.89677093 -0.64705882
10.13071895 -5.89677093 -0.60784314
10.34858388 -5.89677093 -0.45098039
10.5664488 -5.89677093 -0.33333333
10.78431373 -5.89677093 -0.05882353
11.00217865 -5.89677093 0.33333333
11.22004357 -5.89677093 0.7254902
11.4379085 -5.89677093 1
11.65577342 -5.89677093 0.60784314
11.87363834 -5.89677093 0.7254902
12.09150327 -5.89677093 0.84313725
12.30936819 -5.89677093 1.07843137
12.52723312 -5.89677093 1.31372549
12.74509804 -5.89677093 1.43137255
12.96296296 -5.89677093 1.19607843
13.18082789 -5.89677093 1.2745098
13.39869281 -5.89677093 1.19607843
13.61655773 -5.89677093 1.07843137
13.83442266 -5.89677093 1.11764706
14.05228758 -5.89677093 1.19607843
14.27015251 -5.89677093 1.39215686
14.48801743 -5.89677093 1.47058824
14.70588235 -5.89677093 1.54901961
14.92374728 -5.89677093 1.62745098
15.1416122 -5.89677093 1.62745098
15.35947712 -5.89677093 1.58823529
15.57734205 -5.89677093 1.35294118
15.79520697 -5.89677093 1.35294118
16.0130719 -5.89677093 1.31372549
16.23093682 -5.89677093 1.35294118
16.44880174 -5.89677093 1.35294118
16.66666667 -5.89677093 1.39215686
16.88453159 -5.89677093 1
17.10239651 -5.89677093 0.96078431
17.32026144 -5.89677093 0.88235294
17.53812636 -5.89677093 0.88235294
17.75599129 -5.89677093 0.96078431
17.97385621 -5.89677093 1.07843137
18.19172113 -5.89677093 0.88235294
18.40958606 -5.89677093 0.80392157
18.62745098 -5.89677093 0.7254902
18.8453159 -5.89677093 0.80392157
19.06318083 -5.89677093 1.07843137
19.28104575 -5.89677093 1.31372549
19.49891068 -5.89677093 1.35294118
19.7167756 -5.89677093 1.62745098
19.93464052 -5.89677093 2.09803922
20.15250545 -5.89677093 2.41176471
20.37037037 -5.89677093 3.15686275
20.58823529 -5.89677093 4.29411765
20.80610022 -5.89677093 -5
21.02396514 -5.89677093 -5
21.24183007 -5.89677093 -5
24.72766885 -5.89677093 5
24.50980392 -5.89677093 -5
24.94553377 -5.89677093 2.17647059
25.16339869 -5.89677093 3.58823529
25.38126362 -5.89677093 -0.33333333
25.59912854 -5.89677093 -1.43137255
25.81699346 -5.89677093 -1.11764706
26.03485839 -5.89677093 -0.7254902
26.25272331 -5.89677093 -0.92156863
26.47058824 -5.89677093 -1.07843137
26.68845316 -5.89677093 -1.35294118
26.90631808 -5.89677093 -0.84313725
27.12418301 -5.89677093 -2.17647059
27.34204793 -5.89677093 -0.88235294
27.55991285 -5.89677093 -1.66666667
27.77777778 -5.89677093 -1.66666667
27.9956427 -5.89677093 -0.41176471
28.21350763 -5.89677093 -1.07843137
28.43137255 -5.89677093 -0.25490196
28.64923747 -5.89677093 -0.7254902
28.8671024 -5.89677093 0.01960784
29.08496732 -5.89677093 -0.84313725
29.30283224 -5.89677093 0.25490196
29.52069717 -5.89677093 0.29411765
29.73856209 -5.89677093 -0.05882353
29.95642702 -5.89677093 0.7254902
30.17429194 -5.89677093 -0.09803922
30.39215686 -5.89677093 -0.1372549
30.61002179 -5.89677093 -0.05882353
30.82788671 -5.89677093 -0.45098039
31.04575163 -5.89677093 0.84313725
31.26361656 -5.89677093 0.01960784
31.48148148 -5.89677093 0.33333333
31.69934641 -5.89677093 0.25490196
31.91721133 -5.89677093 -0.17647059
32.13507625 -5.89677093 -0.49019608
32.35294118 -5.89677093 -0.17647059
32.5708061 -5.89677093 -0.49019608
32.78867102 -5.89677093 -1.43137255
33.00653595 -5.89677093 -0.1372549
33.22440087 -5.89677093 -0.60784314
33.4422658 -5.89677093 -0.49019608
33.66013072 -5.89677093 -0.49019608
33.87799564 -5.89677093 -0.41176471
34.09586057 -5.89677093 -0.25490196
34.31372549 -5.89677093 -0.29411765
34.53159041 -5.89677093 -0.49019608
34.74945534 -5.89677093 2.05882353
34.96732026 -5.89677093 2.96078431
35.18518519 -5.89677093 2.25490196
35.40305011 -5.89677093 3.23529412
35.62091503 -5.89677093 2.88235294
35.83877996 -5.89677093 2.25490196
36.05664488 -5.89677093 2.52941176
36.2745098 -5.89677093 2.80392157
36.49237473 -5.89677093 2.68627451
36.71023965 -5.89677093 1.82352941
36.92810458 -5.89677093 1.15686275
37.1459695 -5.89677093 1.19607843
37.36383442 -5.89677093 1.31372549
37.58169935 -5.89677093 1.15686275
37.79956427 -5.89677093 0.49019608
38.01742919 -5.89677093 0.17647059
38.23529412 -5.89677093 -0.17647059
38.45315904 -5.89677093 -0.33333333
38.67102397 -5.89677093 -0.25490196
38.88888889 -5.89677093 -0.1372549
39.10675381 -5.89677093 0.09803922
39.32461874 -5.89677093 -0.1372549
39.54248366 -5.89677093 -0.29411765
39.76034858 -5.89677093 -0.25490196
39.97821351 -5.89677093 -0.1372549
40.19607843 -5.89677093 -0.1372549
40.41394336 -5.89677093 -0.76470588
40.63180828 -5.89677093 -0.25490196
40.8496732 -5.89677093 -0.21568627
41.06753813 -5.89677093 1.11764706
41.28540305 -5.89677093 3.19607843
41.50326797 -5.89677093 -5
41.7211329 -5.89677093 -5
41.93899782 -5.89677093 -5
42.15686275 -5.89677093 -5
42.37472767 -5.89677093 -5
42.59259259 -5.89677093 -5
-24.94553377 -5.678372 5
-25.16339869 -5.678372 -5
-24.72766885 -5.678372 4.29411765
-24.50980392 -5.678372 0.96078431
-24.291939 -5.678372 -2.25490196
-24.07407407 -5.678372 -2.1372549
-23.85620915 -5.678372 -2.45098039
-23.63834423 -5.678372 -2.49019608
-23.4204793 -5.678372 -2.68627451
-23.20261438 -5.678372 -2.41176471
-22.98474946 -5.678372 -2.52941176
-22.76688453 -5.678372 -2.52941176
-22.54901961 -5.678372 -2.41176471
-22.33115468 -5.678372 -2.41176471
-22.11328976 -5.678372 -2.37254902
-21.89542484 -5.678372 -2.37254902
-21.67755991 -5.678372 -2.33333333
-21.45969499 -5.678372 -2.29411765
-21.24183007 -5.678372 -2.21568627
-21.02396514 -5.678372 -1.98039216
-20.80610022 -5.678372 -1.98039216
-20.58823529 -5.678372 -1.98039216
-20.37037037 -5.678372 -1.98039216
-20.15250545 -5.678372 -1.90196078
-19.93464052 -5.678372 -1.82352941
-19.7167756 -5.678372 -1.47058824
-19.49891068 -5.678372 -1.03921569
-19.28104575 -5.678372 -0.64705882
-19.06318083 -5.678372 -0.41176471
-18.8453159 -5.678372 0.1372549
-18.62745098 -5.678372 0.64705882
-18.40958606 -5.678372 1.11764706
-18.19172113 -5.678372 1.11764706
-17.97385621 -5.678372 1.23529412
-17.75599129 -5.678372 1.2745098
-17.53812636 -5.678372 1.47058824
-17.32026144 -5.678372 1.78431373
-17.10239651 -5.678372 1.74509804
-16.88453159 -5.678372 1.94117647
-16.66666667 -5.678372 1.07843137
-16.44880174 -5.678372 0.41176471
-16.23093682 -5.678372 0.41176471
-16.0130719 -5.678372 0.05882353
-15.79520697 -5.678372 -0.37254902
-15.57734205 -5.678372 -0.68627451
-15.35947712 -5.678372 -0.76470588
-15.1416122 -5.678372 -0.76470588
-14.92374728 -5.678372 -0.84313725
-14.70588235 -5.678372 -0.88235294
-14.48801743 -5.678372 -1.03921569
-14.27015251 -5.678372 -0.96078431
-14.05228758 -5.678372 -0.80392157
-13.83442266 -5.678372 -0.88235294
-13.61655773 -5.678372 -0.52941176
-13.39869281 -5.678372 0.37254902
-13.18082789 -5.678372 1.07843137
-12.96296296 -5.678372 0.33333333
-12.74509804 -5.678372 -0.49019608
-12.52723312 -5.678372 -0.05882353
-12.30936819 -5.678372 1.39215686
-12.09150327 -5.678372 2.41176471
-11.87363834 -5.678372 2.09803922
-11.65577342 -5.678372 1.43137255
-11.4379085 -5.678372 1.31372549
-11.22004357 -5.678372 1.70588235
-11.00217865 -5.678372 2.1372549
-10.78431373 -5.678372 1.94117647
-10.5664488 -5.678372 1.23529412
-10.34858388 -5.678372 1.43137255
-10.13071895 -5.678372 1.50980392
-9.91285403 -5.678372 1.2745098
-9.69498911 -5.678372 0.68627451
-9.47712418 -5.678372 0.1372549
-9.25925926 -5.678372 0.64705882
-9.04139434 -5.678372 1.03921569
-8.82352941 -5.678372 1.15686275
-8.60566449 -5.678372 1.35294118
-8.38779956 -5.678372 1.58823529
-8.16993464 -5.678372 1.90196078
-7.95206972 -5.678372 1.70588235
-7.73420479 -5.678372 1.66666667
-7.51633987 -5.678372 1.78431373
-7.29847495 -5.678372 1.82352941
-7.08061002 -5.678372 1.54901961
-6.8627451 -5.678372 1.39215686
-6.64488017 -5.678372 1.39215686
-6.42701525 -5.678372 1.2745098
-6.20915033 -5.678372 1.54901961
-5.9912854 -5.678372 1.90196078
-5.77342048 -5.678372 1.78431373
-5.55555556 -5.678372 1.47058824
-5.33769063 -5.678372 1.43137255
-5.11982571 -5.678372 1.50980392
-4.90196078 -5.678372 1.50980392
-4.68409586 -5.678372 1.39215686
-4.46623094 -5.678372 1.43137255
-4.24836601 -5.678372 1.58823529
-4.03050109 -5.678372 1.98039216
-3.81263617 -5.678372 2.05882353
-3.59477124 -5.678372 2.29411765
-3.37690632 -5.678372 2.41176471
-3.15904139 -5.678372 2.05882353
-2.94117647 -5.678372 1.78431373
-2.72331155 -5.678372 1.47058824
-2.50544662 -5.678372 1.54901961
-2.2875817 -5.678372 1.58823529
-2.06971678 -5.678372 1.54901961
-1.85185185 -5.678372 1.58823529
-1.63398693 -5.678372 1.66666667
-1.416122 -5.678372 0.41176471
-1.19825708 -5.678372 -0.56862745
-0.98039216 -5.678372 -1.47058824
-0.76252723 -5.678372 -2.09803922
-0.54466231 -5.678372 -2.41176471
-0.32679739 -5.678372 -2.29411765
-0.10893246 -5.678372 -1.82352941
0.10893246 -5.678372 -1.78431373
0.32679739 -5.678372 -2.17647059
0.54466231 -5.678372 -1.98039216
0.76252723 -5.678372 -2.33333333
0.98039216 -5.678372 -2.25490196
1.19825708 -5.678372 -2.1372549
1.416122 -5.678372 -2.17647059
1.63398693 -5.678372 -2.25490196
1.85185185 -5.678372 -2.21568627
2.06971678 -5.678372 -2.09803922
2.2875817 -5.678372 -2.05882353
2.50544662 -5.678372 -1.94117647
2.72331155 -5.678372 -1.90196078
2.94117647 -5.678372 -1.74509804
3.15904139 -5.678372 -1.58823529
3.37690632 -5.678372 -1.50980392
3.59477124 -5.678372 -1.50980392
3.81263617 -5.678372 -1.39215686
4.03050109 -5.678372 -1.39215686
4.24836601 -5.678372 -1.47058824
4.46623094 -5.678372 -1.50980392
4.68409586 -5.678372 -1.58823529
4.90196078 -5.678372 -1.62745098
5.11982571 -5.678372 -1.62745098
5.33769063 -5.678372 -1.58823529
5.55555556 -5.678372 -1.54901961
5.77342048 -5.678372 -1.54901961
5.9912854 -5.678372 -1.47058824
6.20915033 -5.678372 -1.39215686
6.42701525 -5.678372 -1.47058824
6.64488017 -5.678372 -1.15686275
6.8627451 -5.678372 -1
7.08061002 -5.678372 -0.7254902
7.29847495 -5.678372 -0.33333333
7.51633987 -5.678372 -0.29411765
7.73420479 -5.678372 -0.05882353
7.95206972 -5.678372 -0.05882353
8.16993464 -5.678372 -0.05882353
8.38779956 -5.678372 -0.05882353
8.60566449 -5.678372 -0.09803922
8.82352941 -5.678372 -0.09803922
9.04139434 -5.678372 0.17647059
9.25925926 -5.678372 -0.01960784
9.47712418 -5.678372 -0.21568627
9.69498911 -5.678372 -0.21568627
9.91285403 -5.678372 -0.09803922
10.13071895 -5.678372 -0.01960784
10.34858388 -5.678372 -0.01960784
10.5664488 -5.678372 0.09803922
10.78431373 -5.678372 0.17647059
11.00217865 -5.678372 0.1372549
11.22004357 -5.678372 0.01960784
11.4379085 -5.678372 0.01960784
11.65577342 -5.678372 0.1372549
11.87363834 -5.678372 0.1372549
12.09150327 -5.678372 0.09803922
12.30936819 -5.678372 0.09803922
12.52723312 -5.678372 0.09803922
12.74509804 -5.678372 0.09803922
12.96296296 -5.678372 0.25490196
13.18082789 -5.678372 0.37254902
13.39869281 -5.678372 0.49019608
13.61655773 -5.678372 0.64705882
13.83442266 -5.678372 0.84313725
14.05228758 -5.678372 1.03921569
14.27015251 -5.678372 1.11764706
14.48801743 -5.678372 1.03921569
14.70588235 -5.678372 0.92156863
14.92374728 -5.678372 0.76470588
15.1416122 -5.678372 0.76470588
15.35947712 -5.678372 0.76470588
15.57734205 -5.678372 0.84313725
15.79520697 -5.678372 0.96078431
16.0130719 -5.678372 1.03921569
16.23093682 -5.678372 1.15686275
16.44880174 -5.678372 1.23529412
16.66666667 -5.678372 1.2745098
16.88453159 -5.678372 1.15686275
17.10239651 -5.678372 1.03921569
17.32026144 -5.678372 0.84313725
17.53812636 -5.678372 0.7254902
17.75599129 -5.678372 0.76470588
17.97385621 -5.678372 0.84313725
18.19172113 -5.678372 1.07843137
18.40958606 -5.678372 0.96078431
18.62745098 -5.678372 0.84313725
18.8453159 -5.678372 1.03921569
19.06318083 -5.678372 1.39215686
19.28104575 -5.678372 1.54901961
19.49891068 -5.678372 1.66666667
19.7167756 -5.678372 2.09803922
19.93464052 -5.678372 2.09803922
20.15250545 -5.678372 2.52941176
20.37037037 -5.678372 3.43137255
20.58823529 -5.678372 4.49019608
20.80610022 -5.678372 -5
24.72766885 -5.678372 5
24.50980392 -5.678372 -5
24.94553377 -5.678372 0.37254902
25.16339869 -5.678372 3.35294118
25.38126362 -5.678372 0.60784314
25.59912854 -5.678372 -1.58823529
25.81699346 -5.678372 -1.31372549
26.03485839 -5.678372 -0.64705882
26.25272331 -5.678372 -0.96078431
26.47058824 -5.678372 -1.07843137
26.68845316 -5.678372 -1.23529412
26.90631808 -5.678372 -0.60784314
27.12418301 -5.678372 -2.41176471
27.34204793 -5.678372 -0.80392157
27.55991285 -5.678372 -1.66666667
27.77777778 -5.678372 -1.74509804
27.9956427 -5.678372 -0.52941176
28.21350763 -5.678372 -0.96078431
28.43137255 -5.678372 -0.45098039
28.64923747 -5.678372 -1
28.8671024 -5.678372 -0.09803922
29.08496732 -5.678372 -0.80392157
29.30283224 -5.678372 0.37254902
29.52069717 -5.678372 0.17647059
29.73856209 -5.678372 -0.25490196
29.95642702 -5.678372 0.49019608
30.17429194 -5.678372 -0.1372549
30.39215686 -5.678372 -0.52941176
30.61002179 -5.678372 -0.29411765
30.82788671 -5.678372 -0.45098039
31.04575163 -5.678372 1.11764706
31.26361656 -5.678372 -1.31372549
31.48148148 -5.678372 0.80392157
31.69934641 -5.678372 -0.60784314
31.91721133 -5.678372 -0.76470588
32.13507625 -5.678372 -0.17647059
32.35294118 -5.678372 -0.41176471
32.5708061 -5.678372 -1.62745098
32.78867102 -5.678372 -1
33.00653595 -5.678372 -0.52941176
33.22440087 -5.678372 -0.80392157
33.4422658 -5.678372 -0.29411765
33.66013072 -5.678372 -0.60784314
33.87799564 -5.678372 -0.52941176
34.09586057 -5.678372 -0.52941176
34.31372549 -5.678372 -0.76470588
34.53159041 -5.678372 -0.45098039
34.74945534 -5.678372 1.11764706
34.96732026 -5.678372 2.88235294
35.18518519 -5.678372 2.49019608
35.40305011 -5.678372 3.03921569
35.62091503 -5.678372 2.56862745
35.83877996 -5.678372 1.98039216
36.05664488 -5.678372 2.60784314
36.2745098 -5.678372 2.60784314
36.49237473 -5.678372 1.74509804
36.71023965 -5.678372 1.39215686
36.92810458 -5.678372 1.74509804
37.1459695 -5.678372 1.74509804
37.36383442 -5.678372 0.88235294
37.58169935 -5.678372 0.29411765
37.79956427 -5.678372 0.01960784
38.01742919 -5.678372 -0.25490196
38.23529412 -5.678372 -0.33333333
38.45315904 -5.678372 -0.17647059
38.67102397 -5.678372 -0.1372549
38.88888889 -5.678372 -0.29411765
39.10675381 -5.678372 -0.49019608
39.32461874 -5.678372 -0.25490196
39.54248366 -5.678372 -0.25490196
39.76034858 -5.678372 -0.1372549
39.97821351 -5.678372 -0.21568627
40.19607843 -5.678372 -0.37254902
40.41394336 -5.678372 -0.21568627
40.63180828 -5.678372 1.07843137
40.8496732 -5.678372 1.98039216
41.06753813 -5.678372 4.25490196
41.28540305 -5.678372 -5
41.50326797 -5.678372 -5
-26.25272331 -5.678372 -5
-26.03485839 -5.45997308 4.33333333
-26.25272331 -5.45997308 -5
-26.03485839 -5.678372 -5
-25.81699346 -5.45997308 5
-25.81699346 -5.678372 -5
-25.59912854 -5.45997308 -5
-25.38126362 -5.678372 -5
-25.16339869 -5.45997308 4.1372549
-25.38126362 -5.45997308 -5
-24.94553377 -5.45997308 4.09803922
-24.72766885 -5.45997308 1.90196078
-24.50980392 -5.45997308 -1.90196078
-24.291939 -5.45997308 -2.25490196
-24.07407407 -5.45997308 -2.7254902
-23.85620915 -5.45997308 -2.49019608
-23.63834423 -5.45997308 -2.49019608
-23.4204793 -5.45997308 -2.7254902
-23.20261438 -5.45997308 -2.88235294
-22.98474946 -5.45997308 -2.7254902
-22.76688453 -5.45997308 -2.25490196
-22.54901961 -5.45997308 -1.90196078
-22.33115468 -5.45997308 -2.29411765
-22.11328976 -5.45997308 -2.21568627
-21.89542484 -5.45997308 -2.09803922
-21.67755991 -5.45997308 -1.8627451
-21.45969499 -5.45997308 -1.66666667
-21.24183007 -5.45997308 -1.50980392
-21.02396514 -5.45997308 -1.66666667
-20.80610022 -5.45997308 -1.19607843
-20.58823529 -5.45997308 -0.60784314
-20.37037037 -5.45997308 -0.25490196
-20.15250545 -5.45997308 -0.1372549
-19.93464052 -5.45997308 -0.1372549
-19.7167756 -5.45997308 -0.45098039
-19.49891068 -5.45997308 -0.01960784
-19.28104575 -5.45997308 0.49019608
-19.06318083 -5.45997308 0.76470588
-18.8453159 -5.45997308 0.92156863
-18.62745098 -5.45997308 1.07843137
-18.40958606 -5.45997308 0.92156863
-18.19172113 -5.45997308 1.2745098
-17.97385621 -5.45997308 1.50980392
-17.75599129 -5.45997308 1.66666667
-17.53812636 -5.45997308 2.05882353
-17.32026144 -5.45997308 2.41176471
-17.10239651 -5.45997308 3.47058824
-16.88453159 -5.45997308 3
-16.66666667 -5.45997308 1.43137255
-16.44880174 -5.45997308 0.49019608
-16.23093682 -5.45997308 0.45098039
