18.4981685 -7.2462145 -13.62745098
18.68131868 -7.2462145 -13.58823529
18.86446886 -7.2462145 -13.62745098
19.04761905 -7.2462145 -13.47058824
19.23076923 -7.2462145 -13.15686275
19.41391941 -7.2462145 -13.15686275
19.5970696 -7.2462145 -13.35294118
19.78021978 -7.2462145 -13.58823529
19.96336996 -7.2462145 -13.82352941
20.14652015 -7.2462145 -13.58823529
20.32967033 -7.2462145 -15
20.51282051 -7.2462145 -5
-39.01098901 -7.06276603 -5
-38.82783883 -7.06276603 -7.98039216
-38.64468864 -7.06276603 -10.25490196
-38.46153846 -7.06276603 -10.01960784
-38.27838828 -7.06276603 -10.25490196
-38.0952381 -7.06276603 -10.29411765
-37.91208791 -7.06276603 -10.33333333
-37.72893773 -7.06276603 -10.1372549
-37.54578755 -7.06276603 -10.17647059
-37.36263736 -7.06276603 -10.37254902
-37.17948718 -7.06276603 -10.60784314
-36.996337 -7.06276603 -10.64705882
-36.81318681 -7.06276603 -10.52941176
-36.63003663 -7.06276603 -10.56862745
-36.44688645 -7.06276603 -10.64705882
-36.26373626 -7.06276603 -10.7254902
-36.08058608 -7.06276603 -10.76470588
-35.8974359 -7.06276603 -10.76470588
-35.71428571 -7.06276603 -10.76470588
-35.53113553 -7.06276603 -10.84313725
-35.34798535 -7.06276603 -10.84313725
-35.16483516 -7.06276603 -10.88235294
-34.98168498 -7.06276603 -10.96078431
-34.7985348 -7.06276603 -11
-34.61538462 -7.06276603 -11.07843137
-34.43223443 -7.06276603 -11
-34.24908425 -7.06276603 -11
-34.06593407 -7.06276603 -11.07843137
-33.88278388 -7.06276603 -11.15686275
-33.6996337 -7.06276603 -11.15686275
-33.51648352 -7.06276603 -11.11764706
-33.33333333 -7.06276603 -11.2745098
-33.15018315 -7.06276603 -11.31372549
-32.96703297 -7.06276603 -11.35294118
-32.78388278 -7.06276603 -11.35294118
-32.6007326 -7.06276603 -11.39215686
-32.41758242 -7.06276603 -11.47058824
-32.23443223 -7.06276603 -11.50980392
-32.05128205 -7.06276603 -11.50980392
-31.86813187 -7.06276603 -11.2745098
-31.68498168 -7.06276603 -11.07843137
-31.5018315 -7.06276603 -11.31372549
-31.31868132 -7.06276603 -11.50980392
-31.13553114 -7.06276603 -11.2745098
-30.95238095 -7.06276603 -11.35294118
-30.76923077 -7.06276603 -11.62745098
-30.58608059 -7.06276603 -11.98039216
-30.4029304 -7.06276603 -12.09803922
-30.21978022 -7.06276603 -11.98039216
-30.03663004 -7.06276603 -12.05882353
-29.85347985 -7.06276603 -12.05882353
-29.67032967 -7.06276603 -12.09803922
-29.48717949 -7.06276603 -12.09803922
-29.3040293 -7.06276603 -12.09803922
-29.12087912 -7.06276603 -12.1372549
-28.93772894 -7.06276603 -12.01960784
-28.75457875 -7.06276603 -11.90196078
-28.57142857 -7.06276603 -11.8627451
-28.38827839 -7.06276603 -12.05882353
-28.20512821 -7.06276603 -12.17647059
-28.02197802 -7.06276603 -12.21568627
-27.83882784 -7.06276603 -12.17647059
-27.65567766 -7.06276603 -12.09803922
-27.47252747 -7.06276603 -12.05882353
-27.28937729 -7.06276603 -12.05882353
-27.10622711 -7.06276603 -12.09803922
-26.92307692 -7.06276603 -12.1372549
-26.73992674 -7.06276603 -12.1372549
-26.55677656 -7.06276603 -12.1372549
-26.37362637 -7.06276603 -12.17647059
-26.19047619 -7.06276603 -12.09803922
-26.00732601 -7.06276603 -11.94117647
-25.82417582 -7.06276603 -11.82352941
-25.64102564 -7.06276603 -11.78431373
-25.45787546 -7.06276603 -11.90196078
-25.27472527 -7.06276603 -11.94117647
-25.09157509 -7.06276603 -11.90196078
-24.90842491 -7.06276603 -11.8627451
-24.72527473 -7.06276603 -11.8627451
-24.54212454 -7.06276603 -11.54901961
-24.35897436 -7.06276603 -11.54901961
-24.17582418 -7.06276603 -11.39215686
-23.99267399 -7.06276603 -11.47058824
-23.80952381 -7.06276603 -11.66666667
-23.62637363 -7.06276603 -11.54901961
-23.44322344 -7.06276603 -11.66666667
-23.26007326 -7.06276603 -11.54901961
-23.07692308 -7.06276603 -11.39215686
-22.89377289 -7.06276603 -11.19607843
-22.71062271 -7.06276603 -10.96078431
-22.52747253 -7.06276603 -10.76470588
-22.34432234 -7.06276603 -10.60784314
-22.16117216 -7.06276603 -10.52941176
-21.97802198 -7.06276603 -10.29411765
-21.79487179 -7.06276603 -9.82352941
-21.61172161 -7.06276603 -9.66666667
-21.42857143 -7.06276603 -9.35294118
-21.24542125 -7.06276603 -9.23529412
-21.06227106 -7.06276603 -9.03921569
-20.87912088 -7.06276603 -8.80392157
-20.6959707 -7.06276603 -8.68627451
-20.51282051 -7.06276603 -8.76470588
-20.32967033 -7.06276603 -8.84313725
-20.14652015 -7.06276603 -8.84313725
-19.96336996 -7.06276603 -8.92156863
-19.78021978 -7.06276603 -9.2745098
-19.5970696 -7.06276603 -9.50980392
-19.41391941 -7.06276603 -9.31372549
-19.23076923 -7.06276603 -9.11764706
-19.04761905 -7.06276603 -9.03921569
-18.86446886 -7.06276603 -8.7254902
-18.68131868 -7.06276603 -9.43137255
-18.4981685 -7.06276603 -9.03921569
-18.31501832 -7.06276603 -9
-18.13186813 -7.06276603 -9.31372549
-17.94871795 -7.06276603 -9.43137255
-17.76556777 -7.06276603 -9.90196078
-17.58241758 -7.06276603 -10.49019608
-17.3992674 -7.06276603 -10.52941176
-17.21611722 -7.06276603 -11.23529412
-17.03296703 -7.06276603 -10.33333333
-16.84981685 -7.06276603 -9.11764706
-16.66666667 -7.06276603 -9.50980392
-16.48351648 -7.06276603 -9.19607843
-16.3003663 -7.06276603 -9.70588235
-16.11721612 -7.06276603 -9.70588235
-15.93406593 -7.06276603 -9.70588235
-15.75091575 -7.06276603 -9.31372549
-15.56776557 -7.06276603 -8.96078431
-15.38461538 -7.06276603 -9.70588235
-15.2014652 -7.06276603 -8.33333333
-15.01831502 -7.06276603 -8.7254902
-14.83516484 -7.06276603 -9.50980392
-14.65201465 -7.06276603 -9.94117647
-14.46886447 -7.06276603 -9
-14.28571429 -7.06276603 -8.88235294
-14.1025641 -7.06276603 -9.62745098
-13.91941392 -7.06276603 -9.19607843
-13.73626374 -7.06276603 -9.62745098
-13.55311355 -7.06276603 -9.54901961
-13.36996337 -7.06276603 -9.43137255
-13.18681319 -7.06276603 -9.58823529
-13.003663 -7.06276603 -9.39215686
-12.82051282 -7.06276603 -8.88235294
-12.63736264 -7.06276603 -8.60784314
-12.45421245 -7.06276603 -8.33333333
-12.27106227 -7.06276603 -9.11764706
-12.08791209 -7.06276603 -8.68627451
-11.9047619 -7.06276603 -9.54901961
-11.72161172 -7.06276603 -10.37254902
-11.53846154 -7.06276603 -10.56862745
-11.35531136 -7.06276603 -11.07843137
-11.17216117 -7.06276603 -11.07843137
-10.98901099 -7.06276603 -11.19607843
-10.80586081 -7.06276603 -11.54901961
-10.62271062 -7.06276603 -11.35294118
-10.43956044 -7.06276603 -10.84313725
-10.25641026 -7.06276603 -9.98039216
-10.07326007 -7.06276603 -9.50980392
-9.89010989 -7.06276603 -9.90196078
-9.70695971 -7.06276603 -9.74509804
-9.52380952 -7.06276603 -9.35294118
-9.34065934 -7.06276603 -9.47058824
-9.15750916 -7.06276603 -9.47058824
-8.97435897 -7.06276603 -9.31372549
-8.79120879 -7.06276603 -8.76470588
-8.60805861 -7.06276603 -8.45098039
-8.42490842 -7.06276603 -8.49019608
-8.24175824 -7.06276603 -8.33333333
-8.05860806 -7.06276603 -8.52941176
-7.87545788 -7.06276603 -8.45098039
-7.69230769 -7.06276603 -8.25490196
-7.50915751 -7.06276603 -8.17647059
-7.32600733 -7.06276603 -8.05882353
-7.14285714 -7.06276603 -8.05882353
-6.95970696 -7.06276603 -8.05882353
-6.77655678 -7.06276603 -7.94117647
-6.59340659 -7.06276603 -7.78431373
-6.41025641 -7.06276603 -7.2745098
-6.22710623 -7.06276603 -7.39215686
-6.04395604 -7.06276603 -7.35294118
-5.86080586 -7.06276603 -7.54901961
-5.67765568 -7.06276603 -7.35294118
-5.49450549 -7.06276603 -7.31372549
-5.31135531 -7.06276603 -7.47058824
-5.12820513 -7.06276603 -7.54901961
-4.94505495 -7.06276603 -7.50980392
-4.76190476 -7.06276603 -7.39215686
-4.57875458 -7.06276603 -7.11764706
-4.3956044 -7.06276603 -7.03921569
-4.21245421 -7.06276603 -7.31372549
-4.02930403 -7.06276603 -7.54901961
-3.84615385 -7.06276603 -7.50980392
-3.66300366 -7.06276603 -7.74509804
-3.47985348 -7.06276603 -7.54901961
-3.2967033 -7.06276603 -7.19607843
-3.11355311 -7.06276603 -7.43137255
-2.93040293 -7.06276603 -7.58823529
-2.74725275 -7.06276603 -7.66666667
-2.56410256 -7.06276603 -7.50980392
-2.38095238 -7.06276603 -7.78431373
-2.1978022 -7.06276603 -7.98039216
-2.01465201 -7.06276603 -7.82352941
-1.83150183 -7.06276603 -7.82352941
-1.64835165 -7.06276603 -8.21568627
-1.46520147 -7.06276603 -7.94117647
-1.28205128 -7.06276603 -7.94117647
-1.0989011 -7.06276603 -7.90196078
-0.91575092 -7.06276603 -8.17647059
-0.73260073 -7.06276603 -8.56862745
-0.54945055 -7.06276603 -8.60784314
-0.36630037 -7.06276603 -8.56862745
-0.18315018 -7.06276603 -8.49019608
0 -7.06276603 -8.84313725
0.18315018 -7.06276603 -8.92156863
0.36630037 -7.06276603 -8.80392157
0.54945055 -7.06276603 -9.03921569
0.73260073 -7.06276603 -8.56862745
0.91575092 -7.06276603 -8.33333333
1.0989011 -7.06276603 -8.49019608
1.28205128 -7.06276603 -8.92156863
1.46520147 -7.06276603 -9.43137255
1.64835165 -7.06276603 -9.2745098
1.83150183 -7.06276603 -9.31372549
2.01465201 -7.06276603 -9.47058824
2.1978022 -7.06276603 -9.43137255
2.38095238 -7.06276603 -9.58823529
2.56410256 -7.06276603 -9.8627451
2.74725275 -7.06276603 -9.82352941
2.93040293 -7.06276603 -9.70588235
3.11355311 -7.06276603 -9.90196078
3.2967033 -7.06276603 -10.17647059
3.47985348 -7.06276603 -10.17647059
3.66300366 -7.06276603 -10.33333333
3.84615385 -7.06276603 -10.80392157
4.02930403 -7.06276603 -9.82352941
4.21245421 -7.06276603 -9.8627451
4.3956044 -7.06276603 -10.37254902
4.57875458 -7.06276603 -10.09803922
4.76190476 -7.06276603 -9.78431373
4.94505495 -7.06276603 -9.66666667
5.12820513 -7.06276603 -9.50980392
5.31135531 -7.06276603 -10.05882353
5.49450549 -7.06276603 -10.21568627
5.67765568 -7.06276603 -10.09803922
5.86080586 -7.06276603 -10.01960784
6.04395604 -7.06276603 -10.1372549
6.22710623 -7.06276603 -10.1372549
6.41025641 -7.06276603 -10.25490196
6.59340659 -7.06276603 -9.82352941
6.77655678 -7.06276603 -10.05882353
6.95970696 -7.06276603 -9.94117647
7.14285714 -7.06276603 -9.54901961
7.32600733 -7.06276603 -9.23529412
7.50915751 -7.06276603 -9.07843137
7.69230769 -7.06276603 -8.52941176
7.87545788 -7.06276603 -8.64705882
8.05860806 -7.06276603 -8.37254902
8.24175824 -7.06276603 -8.88235294
8.42490842 -7.06276603 -8.80392157
8.60805861 -7.06276603 -8.88235294
8.79120879 -7.06276603 -9.31372549
8.97435897 -7.06276603 -8.80392157
9.15750916 -7.06276603 -8.64705882
9.34065934 -7.06276603 -8.96078431
9.52380952 -7.06276603 -8.41176471
9.70695971 -7.06276603 -8.29411765
9.89010989 -7.06276603 -7.90196078
10.07326007 -7.06276603 -8.05882353
10.25641026 -7.06276603 -8.56862745
10.43956044 -7.06276603 -8.49019608
10.62271062 -7.06276603 -8.49019608
10.80586081 -7.06276603 -8.52941176
10.98901099 -7.06276603 -8.56862745
11.17216117 -7.06276603 -8.88235294
11.35531136 -7.06276603 -9.47058824
11.53846154 -7.06276603 -10.01960784
11.72161172 -7.06276603 -10.41176471
11.9047619 -7.06276603 -10.80392157
12.08791209 -7.06276603 -11.2745098
12.27106227 -7.06276603 -11.74509804
12.45421245 -7.06276603 -12.17647059
12.63736264 -7.06276603 -12.56862745
12.82051282 -7.06276603 -12.76470588
13.003663 -7.06276603 -12.96078431
13.18681319 -7.06276603 -13.19607843
13.36996337 -7.06276603 -13.35294118
13.55311355 -7.06276603 -13.47058824
13.73626374 -7.06276603 -13.50980392
13.91941392 -7.06276603 -13.58823529
14.1025641 -7.06276603 -13.58823529
14.28571429 -7.06276603 -13.62745098
14.46886447 -7.06276603 -13.66666667
14.65201465 -7.06276603 -13.70588235
14.83516484 -7.06276603 -13.74509804
15.01831502 -7.06276603 -13.70588235
15.2014652 -7.06276603 -13.70588235
15.38461538 -7.06276603 -13.70588235
15.56776557 -7.06276603 -13.74509804
15.75091575 -7.06276603 -13.74509804
15.93406593 -7.06276603 -13.74509804
16.11721612 -7.06276603 -13.47058824
16.3003663 -7.06276603 -13.50980392
16.48351648 -7.06276603 -13.54901961
16.66666667 -7.06276603 -13.58823529
16.84981685 -7.06276603 -13.43137255
17.03296703 -7.06276603 -13.23529412
17.21611722 -7.06276603 -13.2745098
17.3992674 -7.06276603 -13.2745098
17.58241758 -7.06276603 -13.43137255
17.76556777 -7.06276603 -13.58823529
17.94871795 -7.06276603 -13.74509804
18.13186813 -7.06276603 -13.74509804
18.31501832 -7.06276603 -13.70588235
18.4981685 -7.06276603 -13.62745098
18.68131868 -7.06276603 -13.58823529
18.86446886 -7.06276603 -13.62745098
19.04761905 -7.06276603 -13.50980392
19.23076923 -7.06276603 -13.35294118
19.41391941 -7.06276603 -13.19607843
19.5970696 -7.06276603 -13.07843137
19.78021978 -7.06276603 -13.23529412
19.96336996 -7.06276603 -13.47058824
20.14652015 -7.06276603 -13.54901961
20.32967033 -7.06276603 -13.23529412
20.51282051 -7.06276603 -13.23529412
20.6959707 -7.06276603 -15
20.6959707 -7.2462145 -5
20.87912088 -7.06276603 -5
-38.82783883 -6.87931757 -5
-38.64468864 -6.87931757 -9.31372549
-38.46153846 -6.87931757 -9.8627451
-38.27838828 -6.87931757 -10.1372549
-38.0952381 -6.87931757 -10.21568627
-37.91208791 -6.87931757 -10.25490196
-37.72893773 -6.87931757 -10.01960784
-37.54578755 -6.87931757 -10.01960784
-37.36263736 -6.87931757 -10.29411765
-37.17948718 -6.87931757 -10.56862745
-36.996337 -6.87931757 -10.56862745
-36.81318681 -6.87931757 -10.52941176
-36.63003663 -6.87931757 -10.64705882
-36.44688645 -6.87931757 -10.64705882
-36.26373626 -6.87931757 -10.64705882
-36.08058608 -6.87931757 -10.64705882
-35.8974359 -6.87931757 -10.7254902
-35.71428571 -6.87931757 -10.7254902
-35.53113553 -6.87931757 -10.88235294
-35.34798535 -6.87931757 -10.84313725
-35.16483516 -6.87931757 -10.92156863
-34.98168498 -6.87931757 -10.96078431
-34.7985348 -6.87931757 -10.96078431
-34.61538462 -6.87931757 -11
-34.43223443 -6.87931757 -11.07843137
-34.24908425 -6.87931757 -11.07843137
-34.06593407 -6.87931757 -11.15686275
-33.88278388 -6.87931757 -11.19607843
-33.6996337 -6.87931757 -11.23529412
-33.51648352 -6.87931757 -11.23529412
-33.33333333 -6.87931757 -11.31372549
-33.15018315 -6.87931757 -11.39215686
-32.96703297 -6.87931757 -11.43137255
-32.78388278 -6.87931757 -11.47058824
-32.6007326 -6.87931757 -11.43137255
-32.41758242 -6.87931757 -11.47058824
-32.23443223 -6.87931757 -11.50980392
-32.05128205 -6.87931757 -11.58823529
-31.86813187 -6.87931757 -11.58823529
-31.68498168 -6.87931757 -11.47058824
-31.5018315 -6.87931757 -11.50980392
-31.31868132 -6.87931757 -11.62745098
-31.13553114 -6.87931757 -11.50980392
-30.95238095 -6.87931757 -11.58823529
-30.76923077 -6.87931757 -11.47058824
-30.58608059 -6.87931757 -11.31372549
-30.4029304 -6.87931757 -11.58823529
-30.21978022 -6.87931757 -12.05882353
-30.03663004 -6.87931757 -12.05882353
-29.85347985 -6.87931757 -12.05882353
-29.67032967 -6.87931757 -12.09803922
-29.48717949 -6.87931757 -12.09803922
-29.3040293 -6.87931757 -12.1372549
-29.12087912 -6.87931757 -12.1372549
-28.93772894 -6.87931757 -12.17647059
-28.75457875 -6.87931757 -12.01960784
-28.57142857 -6.87931757 -11.90196078
-28.38827839 -6.87931757 -11.94117647
-28.20512821 -6.87931757 -12.09803922
-28.02197802 -6.87931757 -12.25490196
-27.83882784 -6.87931757 -12.05882353
-27.65567766 -6.87931757 -12.1372549
-27.47252747 -6.87931757 -12.21568627
-27.28937729 -6.87931757 -12.21568627
-27.10622711 -6.87931757 -12.17647059
-26.92307692 -6.87931757 -12.09803922
-26.73992674 -6.87931757 -12.17647059
-26.55677656 -6.87931757 -12.17647059
-26.37362637 -6.87931757 -12.1372549
-26.19047619 -6.87931757 -12.05882353
-26.00732601 -6.87931757 -11.90196078
-25.82417582 -6.87931757 -11.82352941
-25.64102564 -6.87931757 -11.78431373
-25.45787546 -6.87931757 -11.90196078
-25.27472527 -6.87931757 -11.94117647
-25.09157509 -6.87931757 -11.94117647
-24.90842491 -6.87931757 -11.8627451
-24.72527473 -6.87931757 -11.66666667
-24.54212454 -6.87931757 -11.54901961
-24.35897436 -6.87931757 -11.47058824
-24.17582418 -6.87931757 -11.43137255
-23.99267399 -6.87931757 -11.50980392
-23.80952381 -6.87931757 -11.47058824
-23.62637363 -6.87931757 -11.35294118
-23.44322344 -6.87931757 -11.54901961
-23.26007326 -6.87931757 -11.43137255
-23.07692308 -6.87931757 -11.31372549
-22.89377289 -6.87931757 -11.15686275
-22.71062271 -6.87931757 -11
-22.52747253 -6.87931757 -10.96078431
-22.34432234 -6.87931757 -10.56862745
-22.16117216 -6.87931757 -10.41176471
-21.97802198 -6.87931757 -10.1372549
-21.79487179 -6.87931757 -9.78431373
-21.61172161 -6.87931757 -9.47058824
-21.42857143 -6.87931757 -9.19607843
-21.24542125 -6.87931757 -9.11764706
-21.06227106 -6.87931757 -8.96078431
-20.87912088 -6.87931757 -8.80392157
-20.6959707 -6.87931757 -8.7254902
-20.51282051 -6.87931757 -8.68627451
-20.32967033 -6.87931757 -8.60784314
-20.14652015 -6.87931757 -8.76470588
-19.96336996 -6.87931757 -8.60784314
-19.78021978 -6.87931757 -8.80392157
-19.5970696 -6.87931757 -9.19607843
-19.41391941 -6.87931757 -9.23529412
-19.23076923 -6.87931757 -9.03921569
-19.04761905 -6.87931757 -9.31372549
-18.86446886 -6.87931757 -8.96078431
-18.68131868 -6.87931757 -9.43137255
-18.4981685 -6.87931757 -9.54901961
-18.31501832 -6.87931757 -9.11764706
-18.13186813 -6.87931757 -9.58823529
-17.94871795 -6.87931757 -9.50980392
-17.76556777 -6.87931757 -9.50980392
-17.58241758 -6.87931757 -10.21568627
-17.3992674 -6.87931757 -10.64705882
-17.21611722 -6.87931757 -10.41176471
-17.03296703 -6.87931757 -9.62745098
-16.84981685 -6.87931757 -9.23529412
-16.66666667 -6.87931757 -9.62745098
-16.48351648 -6.87931757 -9.43137255
-16.3003663 -6.87931757 -8.84313725
-16.11721612 -6.87931757 -9.90196078
-15.93406593 -6.87931757 -10.01960784
-15.75091575 -6.87931757 -10.64705882
-15.56776557 -6.87931757 -9.66666667
-15.38461538 -6.87931757 -9.2745098
-15.2014652 -6.87931757 -9.70588235
-15.01831502 -6.87931757 -9.15686275
-14.83516484 -6.87931757 -9.19607843
-14.65201465 -6.87931757 -9.74509804
-14.46886447 -6.87931757 -9.8627451
-14.28571429 -6.87931757 -9.03921569
-14.1025641 -6.87931757 -8.88235294
-13.91941392 -6.87931757 -8.80392157
-13.73626374 -6.87931757 -8.7254902
-13.55311355 -6.87931757 -9.43137255
-13.36996337 -6.87931757 -9.15686275
-13.18681319 -6.87931757 -9.07843137
-13.003663 -6.87931757 -8.96078431
-12.82051282 -6.87931757 -8.92156863
-12.63736264 -6.87931757 -9.50980392
-12.45421245 -6.87931757 -9.43137255
-12.27106227 -6.87931757 -9.58823529
-12.08791209 -6.87931757 -8.45098039
-11.9047619 -6.87931757 -9.39215686
-11.72161172 -6.87931757 -10.52941176
-11.53846154 -6.87931757 -11.11764706
-11.35531136 -6.87931757 -11.74509804
-11.17216117 -6.87931757 -11.62745098
-10.98901099 -6.87931757 -11.62745098
-10.80586081 -6.87931757 -11.70588235
-10.62271062 -6.87931757 -11.43137255
-10.43956044 -6.87931757 -10.88235294
-10.25641026 -6.87931757 -10.56862745
-10.07326007 -6.87931757 -9.90196078
-9.89010989 -6.87931757 -9.66666667
-9.70695971 -6.87931757 -9
-9.52380952 -6.87931757 -8.25490196
-9.34065934 -6.87931757 -8.25490196
-9.15750916 -6.87931757 -8.92156863
-8.97435897 -6.87931757 -9
-8.79120879 -6.87931757 -8.96078431
-8.60805861 -6.87931757 -8.76470588
-8.42490842 -6.87931757 -8.33333333
-8.24175824 -6.87931757 -7.82352941
-8.05860806 -6.87931757 -8.25490196
-7.87545788 -6.87931757 -8.25490196
-7.69230769 -6.87931757 -7.82352941
-7.50915751 -6.87931757 -7.70588235
-7.32600733 -6.87931757 -7.74509804
-7.14285714 -6.87931757 -7.90196078
-6.95970696 -6.87931757 -7.74509804
-6.77655678 -6.87931757 -7.54901961
-6.59340659 -6.87931757 -7.23529412
-6.41025641 -6.87931757 -6.84313725
-6.22710623 -6.87931757 -6.88235294
-6.04395604 -6.87931757 -6.96078431
-5.86080586 -6.87931757 -7.03921569
-5.67765568 -6.87931757 -7.03921569
-5.49450549 -6.87931757 -7
-5.31135531 -6.87931757 -7
-5.12820513 -6.87931757 -7.11764706
-4.94505495 -6.87931757 -7.23529412
-4.76190476 -6.87931757 -6.60784314
-4.57875458 -6.87931757 -6.49019608
-4.3956044 -6.87931757 -6.76470588
-4.21245421 -6.87931757 -7.07843137
-4.02930403 -6.87931757 -7.03921569
-3.84615385 -6.87931757 -7.23529412
-3.66300366 -6.87931757 -7.35294118
-3.47985348 -6.87931757 -7.07843137
-3.2967033 -6.87931757 -7.03921569
-3.11355311 -6.87931757 -7.07843137
-2.93040293 -6.87931757 -7.15686275
-2.74725275 -6.87931757 -7.50980392
-2.56410256 -6.87931757 -7.62745098
-2.38095238 -6.87931757 -7.70588235
-2.1978022 -6.87931757 -7.74509804
-2.01465201 -6.87931757 -7.66666667
-1.83150183 -6.87931757 -7.70588235
-1.64835165 -6.87931757 -7.8627451
-1.46520147 -6.87931757 -7.82352941
-1.28205128 -6.87931757 -7.70588235
-1.0989011 -6.87931757 -7.74509804
-0.91575092 -6.87931757 -8.09803922
-0.73260073 -6.87931757 -8.29411765
-0.54945055 -6.87931757 -8.37254902
-0.36630037 -6.87931757 -8.17647059
-0.18315018 -6.87931757 -8.01960784
0 -6.87931757 -8.25490196
0.18315018 -6.87931757 -8.49019608
0.36630037 -6.87931757 -8.60784314
0.54945055 -6.87931757 -8.7254902
0.73260073 -6.87931757 -8.41176471
0.91575092 -6.87931757 -8.41176471
1.0989011 -6.87931757 -8.64705882
1.28205128 -6.87931757 -8.64705882
1.46520147 -6.87931757 -9.03921569
1.64835165 -6.87931757 -9.47058824
1.83150183 -6.87931757 -9.47058824
2.01465201 -6.87931757 -8.84313725
2.1978022 -6.87931757 -8.76470588
2.38095238 -6.87931757 -9.11764706
2.56410256 -6.87931757 -9.31372549
2.74725275 -6.87931757 -9.78431373
2.93040293 -6.87931757 -9.98039216
3.11355311 -6.87931757 -9.62745098
3.2967033 -6.87931757 -9.98039216
3.47985348 -6.87931757 -10.45098039
3.66300366 -6.87931757 -10.45098039
3.84615385 -6.87931757 -10.33333333
4.02930403 -6.87931757 -10.21568627
4.21245421 -6.87931757 -10.7254902
4.3956044 -6.87931757 -10.09803922
4.57875458 -6.87931757 -9.54901961
4.76190476 -6.87931757 -9.82352941
4.94505495 -6.87931757 -9.94117647
5.12820513 -6.87931757 -10.21568627
5.31135531 -6.87931757 -10.29411765
5.49450549 -6.87931757 -10.64705882
5.67765568 -6.87931757 -9.74509804
5.86080586 -6.87931757 -9.31372549
6.04395604 -6.87931757 -9.66666667
6.22710623 -6.87931757 -9.47058824
6.41025641 -6.87931757 -9.62745098
6.59340659 -6.87931757 -9.39215686
6.77655678 -6.87931757 -9.19607843
6.95970696 -6.87931757 -9.82352941
7.14285714 -6.87931757 -10.09803922
7.32600733 -6.87931757 -8.92156863
7.50915751 -6.87931757 -8.49019608
7.69230769 -6.87931757 -8.80392157
7.87545788 -6.87931757 -9.03921569
8.05860806 -6.87931757 -9.03921569
8.24175824 -6.87931757 -8.96078431
8.42490842 -6.87931757 -9.11764706
8.60805861 -6.87931757 -9.23529412
8.79120879 -6.87931757 -9.43137255
8.97435897 -6.87931757 -9.07843137
9.15750916 -6.87931757 -9
9.34065934 -6.87931757 -9.07843137
9.52380952 -6.87931757 -8.45098039
9.70695971 -6.87931757 -8.1372549
9.89010989 -6.87931757 -7.74509804
10.07326007 -6.87931757 -7.98039216
10.25641026 -6.87931757 -8.49019608
10.43956044 -6.87931757 -8.45098039
10.62271062 -6.87931757 -8.45098039
10.80586081 -6.87931757 -8.29411765
10.98901099 -6.87931757 -8.33333333
11.17216117 -6.87931757 -8.68627451
11.35531136 -6.87931757 -9.31372549
11.53846154 -6.87931757 -9.78431373
11.72161172 -6.87931757 -10.1372549
11.9047619 -6.87931757 -10.56862745
12.08791209 -6.87931757 -11.11764706
12.27106227 -6.87931757 -11.54901961
12.45421245 -6.87931757 -11.98039216
12.63736264 -6.87931757 -12.29411765
12.82051282 -6.87931757 -12.7254902
13.003663 -6.87931757 -12.96078431
13.18681319 -6.87931757 -13.19607843
13.36996337 -6.87931757 -13.31372549
13.55311355 -6.87931757 -13.35294118
13.73626374 -6.87931757 -13.39215686
13.91941392 -6.87931757 -13.54901961
14.1025641 -6.87931757 -13.58823529
14.28571429 -6.87931757 -13.62745098
14.46886447 -6.87931757 -13.66666667
14.65201465 -6.87931757 -13.70588235
14.83516484 -6.87931757 -13.70588235
15.01831502 -6.87931757 -13.66666667
15.2014652 -6.87931757 -13.70588235
15.38461538 -6.87931757 -13.70588235
15.56776557 -6.87931757 -13.70588235
15.75091575 -6.87931757 -13.66666667
15.93406593 -6.87931757 -13.58823529
16.11721612 -6.87931757 -13.2745098
16.3003663 -6.87931757 -13.35294118
16.48351648 -6.87931757 -13.39215686
16.66666667 -6.87931757 -13.43137255
16.84981685 -6.87931757 -13.47058824
17.03296703 -6.87931757 -13.43137255
17.21611722 -6.87931757 -13.47058824
17.3992674 -6.87931757 -13.54901961
17.58241758 -6.87931757 -13.62745098
17.76556777 -6.87931757 -13.70588235
17.94871795 -6.87931757 -13.78431373
18.13186813 -6.87931757 -13.82352941
18.31501832 -6.87931757 -13.78431373
18.4981685 -6.87931757 -13.74509804
18.68131868 -6.87931757 -13.70588235
18.86446886 -6.87931757 -13.62745098
19.04761905 -6.87931757 -13.54901961
19.23076923 -6.87931757 -13.54901961
19.41391941 -6.87931757 -13.39215686
19.5970696 -6.87931757 -13.2745098
19.78021978 -6.87931757 -13.11764706
19.96336996 -6.87931757 -13.15686275
20.14652015 -6.87931757 -13.11764706
20.32967033 -6.87931757 -13
20.51282051 -6.87931757 -13.19607843
20.6959707 -6.87931757 -13.62745098
20.87912088 -6.87931757 -15
21.06227106 -6.87931757 -5
-38.64468864 -6.6958691 -5
-38.46153846 -6.6958691 -9.58823529
-38.27838828 -6.6958691 -10.05882353
-38.0952381 -6.6958691 -10.05882353
-37.91208791 -6.6958691 -10.17647059
-37.72893773 -6.6958691 -9.94117647
-37.54578755 -6.6958691 -9.94117647
-37.36263736 -6.6958691 -10.25490196
-37.17948718 -6.6958691 -10.52941176
-36.996337 -6.6958691 -10.52941176
-36.81318681 -6.6958691 -10.52941176
-36.63003663 -6.6958691 -10.68627451
-36.44688645 -6.6958691 -10.64705882
-36.26373626 -6.6958691 -10.64705882
-36.08058608 -6.6958691 -10.64705882
-35.8974359 -6.6958691 -10.68627451
-35.71428571 -6.6958691 -10.76470588
-35.53113553 -6.6958691 -10.88235294
-35.34798535 -6.6958691 -10.88235294
-35.16483516 -6.6958691 -10.92156863
-34.98168498 -6.6958691 -10.92156863
-34.7985348 -6.6958691 -11
-34.61538462 -6.6958691 -11
-34.43223443 -6.6958691 -11.11764706
-34.24908425 -6.6958691 -11.15686275
-34.06593407 -6.6958691 -11.19607843
-33.88278388 -6.6958691 -11.19607843
-33.6996337 -6.6958691 -11.2745098
-33.51648352 -6.6958691 -11.31372549
-33.33333333 -6.6958691 -11.35294118
-33.15018315 -6.6958691 -11.39215686
-32.96703297 -6.6958691 -11.47058824
-32.78388278 -6.6958691 -11.50980392
-32.6007326 -6.6958691 -11.47058824
-32.41758242 -6.6958691 -11.47058824
-32.23443223 -6.6958691 -11.50980392
-32.05128205 -6.6958691 -11.62745098
-31.86813187 -6.6958691 -11.62745098
-31.68498168 -6.6958691 -11.58823529
-31.5018315 -6.6958691 -11.66666667
-31.31868132 -6.6958691 -11.78431373
-31.13553114 -6.6958691 -11.74509804
-30.95238095 -6.6958691 -11.8627451
-30.76923077 -6.6958691 -11.70588235
-30.58608059 -6.6958691 -11.39215686
-30.4029304 -6.6958691 -11.43137255
-30.21978022 -6.6958691 -11.74509804
-30.03663004 -6.6958691 -11.90196078
-29.85347985 -6.6958691 -11.98039216
-29.67032967 -6.6958691 -12.09803922
-29.48717949 -6.6958691 -12.21568627
-29.3040293 -6.6958691 -12.25490196
-29.12087912 -6.6958691 -12.29411765
-28.93772894 -6.6958691 -12.21568627
-28.75457875 -6.6958691 -12.05882353
-28.57142857 -6.6958691 -11.90196078
-28.38827839 -6.6958691 -11.90196078
-28.20512821 -6.6958691 -12.05882353
-28.02197802 -6.6958691 -12.21568627
-27.83882784 -6.6958691 -12.37254902
-27.65567766 -6.6958691 -12.29411765
-27.47252747 -6.6958691 -12.17647059
-27.28937729 -6.6958691 -12.1372549
-27.10622711 -6.6958691 -12.09803922
-26.92307692 -6.6958691 -12.1372549
-26.73992674 -6.6958691 -12.05882353
-26.55677656 -6.6958691 -11.98039216
-26.37362637 -6.6958691 -11.98039216
-26.19047619 -6.6958691 -11.90196078
-26.00732601 -6.6958691 -11.94117647
-25.82417582 -6.6958691 -11.94117647
-25.64102564 -6.6958691 -11.94117647
-25.45787546 -6.6958691 -11.90196078
-25.27472527 -6.6958691 -11.78431373
-25.09157509 -6.6958691 -11.8627451
-24.90842491 -6.6958691 -11.82352941
-24.72527473 -6.6958691 -11.54901961
-24.54212454 -6.6958691 -11.50980392
-24.35897436 -6.6958691 -11.43137255
-24.17582418 -6.6958691 -11.43137255
-23.99267399 -6.6958691 -11.50980392
-23.80952381 -6.6958691 -11.50980392
-23.62637363 -6.6958691 -11.47058824
-23.44322344 -6.6958691 -11.50980392
-23.26007326 -6.6958691 -11.39215686
-23.07692308 -6.6958691 -11.23529412
-22.89377289 -6.6958691 -11.07843137
-22.71062271 -6.6958691 -10.96078431
-22.52747253 -6.6958691 -10.92156863
-22.34432234 -6.6958691 -10.52941176
-22.16117216 -6.6958691 -10.29411765
-21.97802198 -6.6958691 -10.01960784
-21.79487179 -6.6958691 -9.66666667
-21.61172161 -6.6958691 -9.35294118
-21.42857143 -6.6958691 -9.07843137
-21.24542125 -6.6958691 -8.84313725
-21.06227106 -6.6958691 -8.76470588
-20.87912088 -6.6958691 -8.68627451
-20.6959707 -6.6958691 -8.64705882
-20.51282051 -6.6958691 -8.68627451
-20.32967033 -6.6958691 -8.68627451
-20.14652015 -6.6958691 -8.88235294
-19.96336996 -6.6958691 -8.88235294
-19.78021978 -6.6958691 -9
-19.5970696 -6.6958691 -9.23529412
-19.41391941 -6.6958691 -9.2745098
-19.23076923 -6.6958691 -9
-19.04761905 -6.6958691 -8.80392157
-18.86446886 -6.6958691 -9.07843137
-18.68131868 -6.6958691 -9.70588235
-18.4981685 -6.6958691 -9.78431373
-18.31501832 -6.6958691 -9.43137255
-18.13186813 -6.6958691 -9.8627451
-17.94871795 -6.6958691 -9.74509804
-17.76556777 -6.6958691 -9.70588235
-17.58241758 -6.6958691 -9.82352941
-17.3992674 -6.6958691 -10.09803922
-17.21611722 -6.6958691 -9.94117647
-17.03296703 -6.6958691 -9.47058824
-16.84981685 -6.6958691 -9.54901961
-16.66666667 -6.6958691 -10.25490196
-16.48351648 -6.6958691 -10.60784314
-16.3003663 -6.6958691 -8.84313725
-16.11721612 -6.6958691 -9.07843137
-15.93406593 -6.6958691 -9.47058824
-15.75091575 -6.6958691 -10.01960784
-15.56776557 -6.6958691 -10.05882353
-15.38461538 -6.6958691 -9.2745098
-15.2014652 -6.6958691 -9.39215686
-15.01831502 -6.6958691 -9.23529412
-14.83516484 -6.6958691 -8.60784314
-14.65201465 -6.6958691 -8.56862745
-14.46886447 -6.6958691 -9.58823529
-14.28571429 -6.6958691 -9.62745098
-14.1025641 -6.6958691 -9.15686275
-13.91941392 -6.6958691 -9.54901961
-13.73626374 -6.6958691 -8.68627451
-13.55311355 -6.6958691 -8.1372549
-13.36996337 -6.6958691 -8.7254902
-13.18681319 -6.6958691 -9.31372549
-13.003663 -6.6958691 -9.47058824
-12.82051282 -6.6958691 -9.39215686
-12.63736264 -6.6958691 -9
-12.45421245 -6.6958691 -9.8627451
-12.27106227 -6.6958691 -10.1372549
-12.08791209 -6.6958691 -8.49019608
-11.9047619 -6.6958691 -8.64705882
-11.72161172 -6.6958691 -10.41176471
-11.53846154 -6.6958691 -11.39215686
-11.35531136 -6.6958691 -11.66666667
-11.17216117 -6.6958691 -11.23529412
-10.98901099 -6.6958691 -10.76470588
-10.80586081 -6.6958691 -10.45098039
-10.62271062 -6.6958691 -10.21568627
-10.43956044 -6.6958691 -10.05882353
-10.25641026 -6.6958691 -9.62745098
-10.07326007 -6.6958691 -9.35294118
-9.89010989 -6.6958691 -9.43137255
-9.70695971 -6.6958691 -9.11764706
-9.52380952 -6.6958691 -8.45098039
-9.34065934 -6.6958691 -8.17647059
-9.15750916 -6.6958691 -8.41176471
-8.97435897 -6.6958691 -8.33333333
-8.79120879 -6.6958691 -8.37254902
-8.60805861 -6.6958691 -8.37254902
-8.42490842 -6.6958691 -8.1372549
-8.24175824 -6.6958691 -7.74509804
-8.05860806 -6.6958691 -7.8627451
-7.87545788 -6.6958691 -7.90196078
-7.69230769 -6.6958691 -7.50980392
-7.50915751 -6.6958691 -7.43137255
-7.32600733 -6.6958691 -7.35294118
-7.14285714 -6.6958691 -7.50980392
-6.95970696 -6.6958691 -7.66666667
-6.77655678 -6.6958691 -7.19607843
-6.59340659 -6.6958691 -6.68627451
-6.41025641 -6.6958691 -6.33333333
-6.22710623 -6.6958691 -6.33333333
-6.04395604 -6.6958691 -6.37254902
-5.86080586 -6.6958691 -6.25490196
-5.67765568 -6.6958691 -6.25490196
-5.49450549 -6.6958691 -6.21568627
-5.31135531 -6.6958691 -6.21568627
-5.12820513 -6.6958691 -6.25490196
-4.94505495 -6.6958691 -6.37254902
-4.76190476 -6.6958691 -6.1372549
-4.57875458 -6.6958691 -5.98039216
-4.3956044 -6.6958691 -6.25490196
-4.21245421 -6.6958691 -6.37254902
-4.02930403 -6.6958691 -6.41176471
-3.84615385 -6.6958691 -6.76470588
-3.66300366 -6.6958691 -6.88235294
-3.47985348 -6.6958691 -6.56862745
-3.2967033 -6.6958691 -6.64705882
-3.11355311 -6.6958691 -6.56862745
-2.93040293 -6.6958691 -6.52941176
-2.74725275 -6.6958691 -6.96078431
-2.56410256 -6.6958691 -7.2745098
-2.38095238 -6.6958691 -7.2745098
-2.1978022 -6.6958691 -7.39215686
-2.01465201 -6.6958691 -7.47058824
-1.83150183 -6.6958691 -7.62745098
-1.64835165 -6.6958691 -7.74509804
-1.46520147 -6.6958691 -7.74509804
-1.28205128 -6.6958691 -7.78431373
-1.0989011 -6.6958691 -7.82352941
-0.91575092 -6.6958691 -7.98039216
-0.73260073 -6.6958691 -7.98039216
-0.54945055 -6.6958691 -7.78431373
-0.36630037 -6.6958691 -7.58823529
-0.18315018 -6.6958691 -7.62745098
0 -6.6958691 -7.8627451
0.18315018 -6.6958691 -8.05882353
0.36630037 -6.6958691 -8.01960784
0.54945055 -6.6958691 -8.01960784
0.73260073 -6.6958691 -8.45098039
0.91575092 -6.6958691 -8.49019608
1.0989011 -6.6958691 -8.76470588
1.28205128 -6.6958691 -8.60784314
1.46520147 -6.6958691 -8.92156863
1.64835165 -6.6958691 -9.43137255
1.83150183 -6.6958691 -9.47058824
2.01465201 -6.6958691 -9.50980392
2.1978022 -6.6958691 -9.2745098
2.38095238 -6.6958691 -9.39215686
2.56410256 -6.6958691 -9.70588235
2.74725275 -6.6958691 -9.70588235
2.93040293 -6.6958691 -9.70588235
3.11355311 -6.6958691 -9.78431373
3.2967033 -6.6958691 -10.49019608
3.47985348 -6.6958691 -10.64705882
3.66300366 -6.6958691 -10.21568627
3.84615385 -6.6958691 -10.25490196
4.02930403 -6.6958691 -10.49019608
4.21245421 -6.6958691 -10.49019608
4.3956044 -6.6958691 -10.56862745
4.57875458 -6.6958691 -10.92156863
4.76190476 -6.6958691 -10.68627451
4.94505495 -6.6958691 -10.49019608
5.12820513 -6.6958691 -9.74509804
5.31135531 -6.6958691 -9.90196078
5.49450549 -6.6958691 -10.41176471
5.67765568 -6.6958691 -9.50980392
5.86080586 -6.6958691 -9.07843137
6.04395604 -6.6958691 -9.07843137
6.22710623 -6.6958691 -8.96078431
6.41025641 -6.6958691 -9.50980392
6.59340659 -6.6958691 -9.78431373
6.77655678 -6.6958691 -9.54901961
6.95970696 -6.6958691 -9.74509804
7.14285714 -6.6958691 -9.54901961
7.32600733 -6.6958691 -8.84313725
7.50915751 -6.6958691 -8.49019608
7.69230769 -6.6958691 -8.80392157
7.87545788 -6.6958691 -9.07843137
8.05860806 -6.6958691 -9.15686275
8.24175824 -6.6958691 -9.2745098
8.42490842 -6.6958691 -9.54901961
8.60805861 -6.6958691 -9.54901961
8.79120879 -6.6958691 -9.78431373
8.97435897 -6.6958691 -9.58823529
9.15750916 -6.6958691 -9.03921569
9.34065934 -6.6958691 -8.33333333
9.52380952 -6.6958691 -8.17647059
9.70695971 -6.6958691 -8.1372549
9.89010989 -6.6958691 -7.98039216
10.07326007 -6.6958691 -8.21568627
10.25641026 -6.6958691 -8.49019608
10.43956044 -6.6958691 -8.33333333
10.62271062 -6.6958691 -8.25490196
10.80586081 -6.6958691 -8.21568627
10.98901099 -6.6958691 -8.21568627
11.17216117 -6.6958691 -8.45098039
11.35531136 -6.6958691 -8.92156863
11.53846154 -6.6958691 -9.2745098
11.72161172 -6.6958691 -9.66666667
11.9047619 -6.6958691 -10.1372549
12.08791209 -6.6958691 -10.7254902
12.27106227 -6.6958691 -11.11764706
12.45421245 -6.6958691 -11.54901961
12.63736264 -6.6958691 -11.8627451
12.82051282 -6.6958691 -12.41176471
13.003663 -6.6958691 -12.7254902
13.18681319 -6.6958691 -13.03921569
13.36996337 -6.6958691 -13.19607843
13.55311355 -6.6958691 -13.2745098
13.73626374 -6.6958691 -13.31372549
13.91941392 -6.6958691 -13.50980392
14.1025641 -6.6958691 -13.54901961
14.28571429 -6.6958691 -13.62745098
14.46886447 -6.6958691 -13.62745098
14.65201465 -6.6958691 -13.70588235
14.83516484 -6.6958691 -13.74509804
15.01831502 -6.6958691 -13.70588235
15.2014652 -6.6958691 -13.74509804
15.38461538 -6.6958691 -13.74509804
15.56776557 -6.6958691 -13.70588235
15.75091575 -6.6958691 -13.58823529
15.93406593 -6.6958691 -13.50980392
16.11721612 -6.6958691 -13.35294118
16.3003663 -6.6958691 -13.39215686
16.48351648 -6.6958691 -13.43137255
16.66666667 -6.6958691 -13.43137255
16.84981685 -6.6958691 -13.47058824
17.03296703 -6.6958691 -13.50980392
17.21611722 -6.6958691 -13.54901961
17.3992674 -6.6958691 -13.66666667
17.58241758 -6.6958691 -13.74509804
17.76556777 -6.6958691 -13.70588235
17.94871795 -6.6958691 -13.74509804
18.13186813 -6.6958691 -13.8627451
18.31501832 -6.6958691 -13.8627451
18.4981685 -6.6958691 -13.82352941
18.68131868 -6.6958691 -13.74509804
18.86446886 -6.6958691 -13.70588235
19.04761905 -6.6958691 -13.62745098
19.23076923 -6.6958691 -13.62745098
19.41391941 -6.6958691 -13.50980392
19.5970696 -6.6958691 -13.39215686
19.78021978 -6.6958691 -13.23529412
19.96336996 -6.6958691 -13.15686275
20.14652015 -6.6958691 -13.15686275
20.32967033 -6.6958691 -13.19607843
20.51282051 -6.6958691 -13
20.6959707 -6.6958691 -12.92156863
20.87912088 -6.6958691 -12.96078431
21.06227106 -6.6958691 -11.2745098
21.24542125 -6.6958691 -15
21.24542125 -6.87931757 -5
21.42857143 -6.6958691 -5
-38.46153846 -6.51242063 -5
-38.27838828 -6.51242063 -9.98039216
-38.0952381 -6.51242063 -10.09803922
-37.91208791 -6.51242063 -10.09803922
-37.72893773 -6.51242063 -9.78431373
-37.54578755 -6.51242063 -9.8627451
-37.36263736 -6.51242063 -10.17647059
-37.17948718 -6.51242063 -10.45098039
-36.996337 -6.51242063 -10.45098039
-36.81318681 -6.51242063 -10.52941176
-36.63003663 -6.51242063 -10.64705882
-36.44688645 -6.51242063 -10.60784314
-36.26373626 -6.51242063 -10.60784314
-36.08058608 -6.51242063 -10.64705882
-35.8974359 -6.51242063 -10.68627451
-35.71428571 -6.51242063 -10.76470588
-35.53113553 -6.51242063 -10.88235294
-35.34798535 -6.51242063 -10.88235294
-35.16483516 -6.51242063 -10.96078431
-34.98168498 -6.51242063 -10.96078431
-34.7985348 -6.51242063 -11.03921569
-34.61538462 -6.51242063 -11.03921569
-34.43223443 -6.51242063 -11.15686275
-34.24908425 -6.51242063 -11.15686275
-34.06593407 -6.51242063 -11.23529412
-33.88278388 -6.51242063 -11.23529412
-33.6996337 -6.51242063 -11.2745098
-33.51648352 -6.51242063 -11.31372549
-33.33333333 -6.51242063 -11.35294118
-33.15018315 -6.51242063 -11.39215686
-32.96703297 -6.51242063 -11.47058824
-32.78388278 -6.51242063 -11.50980392
-32.6007326 -6.51242063 -11.47058824
-32.41758242 -6.51242063 -11.47058824
-32.23443223 -6.51242063 -11.58823529
-32.05128205 -6.51242063 -11.62745098
-31.86813187 -6.51242063 -11.66666667
-31.68498168 -6.51242063 -11.70588235
-31.5018315 -6.51242063 -11.70588235
-31.31868132 -6.51242063 -11.78431373
-31.13553114 -6.51242063 -11.82352941
-30.95238095 -6.51242063 -11.94117647
-30.76923077 -6.51242063 -11.94117647
-30.58608059 -6.51242063 -11.78431373
-30.4029304 -6.51242063 -11.58823529
-30.21978022 -6.51242063 -11.50980392
-30.03663004 -6.51242063 -11.98039216
-29.85347985 -6.51242063 -12.05882353
-29.67032967 -6.51242063 -12.1372549
-29.48717949 -6.51242063 -12.1372549
-29.3040293 -6.51242063 -12.05882353
-29.12087912 -6.51242063 -11.98039216
-28.93772894 -6.51242063 -12.09803922
-28.75457875 -6.51242063 -12.01960784
-28.57142857 -6.51242063 -11.94117647
-28.38827839 -6.51242063 -11.98039216
-28.20512821 -6.51242063 -12.1372549
-28.02197802 -6.51242063 -12.25490196
-27.83882784 -6.51242063 -12.1372549
-27.65567766 -6.51242063 -12.1372549
-27.47252747 -6.51242063 -12.17647059
-27.28937729 -6.51242063 -12.21568627
-27.10622711 -6.51242063 -12.1372549
-26.92307692 -6.51242063 -12.09803922
-26.73992674 -6.51242063 -11.94117647
-26.55677656 -6.51242063 -11.90196078
-26.37362637 -6.51242063 -11.8627451
-26.19047619 -6.51242063 -11.90196078
-26.00732601 -6.51242063 -12.01960784
-25.82417582 -6.51242063 -12.1372549
-25.64102564 -6.51242063 -12.05882353
-25.45787546 -6.51242063 -11.98039216
-25.27472527 -6.51242063 -11.94117647
-25.09157509 -6.51242063 -12.05882353
-24.90842491 -6.51242063 -11.82352941
-24.72527473 -6.51242063 -11.2745098
-24.54212454 -6.51242063 -11.54901961
-24.35897436 -6.51242063 -11.50980392
-24.17582418 -6.51242063 -11.47058824
-23.99267399 -6.51242063 -11.39215686
-23.80952381 -6.51242063 -11.31372549
-23.62637363 -6.51242063 -11.23529412
-23.44322344 -6.51242063 -11.47058824
-23.26007326 -6.51242063 -11.35294118
-23.07692308 -6.51242063 -11.19607843
-22.89377289 -6.51242063 -11
-22.71062271 -6.51242063 -10.80392157
-22.52747253 -6.51242063 -10.68627451
-22.34432234 -6.51242063 -10.37254902
-22.16117216 -6.51242063 -10.1372549
-21.97802198 -6.51242063 -9.78431373
-21.79487179 -6.51242063 -9.50980392
-21.61172161 -6.51242063 -9.23529412
-21.42857143 -6.51242063 -9.03921569
-21.24542125 -6.51242063 -8.76470588
-21.06227106 -6.51242063 -8.64705882
-20.87912088 -6.51242063 -8.56862745
-20.6959707 -6.51242063 -8.68627451
-20.51282051 -6.51242063 -8.80392157
-20.32967033 -6.51242063 -8.88235294
-20.14652015 -6.51242063 -8.92156863
-19.96336996 -6.51242063 -8.92156863
-19.78021978 -6.51242063 -8.84313725
-19.5970696 -6.51242063 -8.80392157
-19.41391941 -6.51242063 -8.88235294
-19.23076923 -6.51242063 -8.7254902
-19.04761905 -6.51242063 -8.96078431
-18.86446886 -6.51242063 -9.2745098
-18.68131868 -6.51242063 -9.82352941
-18.4981685 -6.51242063 -9.47058824
-18.31501832 -6.51242063 -9.23529412
-18.13186813 -6.51242063 -9.23529412
-17.94871795 -6.51242063 -9.58823529
-17.76556777 -6.51242063 -9.54901961
-17.58241758 -6.51242063 -9.31372549
-17.3992674 -6.51242063 -9.50980392
-17.21611722 -6.51242063 -9.74509804
-17.03296703 -6.51242063 -9.43137255
-16.84981685 -6.51242063 -9.62745098
-16.66666667 -6.51242063 -10.33333333
-16.48351648 -6.51242063 -11.35294118
-16.3003663 -6.51242063 -10.29411765
-16.11721612 -6.51242063 -9.8627451
-15.93406593 -6.51242063 -9.94117647
-15.75091575 -6.51242063 -9.74509804
-15.56776557 -6.51242063 -10.25490196
-15.38461538 -6.51242063 -10.01960784
-15.2014652 -6.51242063 -9.07843137
-15.01831502 -6.51242063 -9.15686275
-14.83516484 -6.51242063 -9.62745098
-14.65201465 -6.51242063 -8.52941176
-14.46886447 -6.51242063 -8.76470588
-14.28571429 -6.51242063 -9.35294118
-14.1025641 -6.51242063 -9.19607843
-13.91941392 -6.51242063 -10.1372549
-13.73626374 -6.51242063 -10.56862745
-13.55311355 -6.51242063 -8.68627451
-13.36996337 -6.51242063 -8.76470588
-13.18681319 -6.51242063 -9.54901961
-13.003663 -6.51242063 -9.74509804
-12.82051282 -6.51242063 -9.78431373
-12.63736264 -6.51242063 -9.23529412
-12.45421245 -6.51242063 -8.92156863
-12.27106227 -6.51242063 -9.39215686
-12.08791209 -6.51242063 -8.96078431
-11.9047619 -6.51242063 -8.68627451
-11.72161172 -6.51242063 -10.21568627
-11.53846154 -6.51242063 -11.58823529
-11.35531136 -6.51242063 -11.47058824
-11.17216117 -6.51242063 -10.76470588
-10.98901099 -6.51242063 -9.82352941
-10.80586081 -6.51242063 -9.19607843
-10.62271062 -6.51242063 -9.11764706
-10.43956044 -6.51242063 -9.19607843
-10.25641026 -6.51242063 -8.60784314
-10.07326007 -6.51242063 -8.49019608
-9.89010989 -6.51242063 -8.76470588
-9.70695971 -6.51242063 -8.84313725
-9.52380952 -6.51242063 -8.60784314
-9.34065934 -6.51242063 -8.49019608
-9.15750916 -6.51242063 -8.49019608
-8.97435897 -6.51242063 -8.1372549
-8.79120879 -6.51242063 -7.98039216
-8.60805861 -6.51242063 -8.09803922
-8.42490842 -6.51242063 -8.05882353
-8.24175824 -6.51242063 -7.82352941
-8.05860806 -6.51242063 -7.43137255
-7.87545788 -6.51242063 -7.43137255
-7.69230769 -6.51242063 -7.15686275
-7.50915751 -6.51242063 -7
-7.32600733 -6.51242063 -6.68627451
-7.14285714 -6.51242063 -6.68627451
-6.95970696 -6.51242063 -7.03921569
-6.77655678 -6.51242063 -6.49019608
-6.59340659 -6.51242063 -5.94117647
-6.41025641 -6.51242063 -5.70588235
-6.22710623 -6.51242063 -5.66666667
-6.04395604 -6.51242063 -5.62745098
-5.86080586 -6.51242063 -5.47058824
-5.67765568 -6.51242063 -5.50980392
-5.49450549 -6.51242063 -5.47058824
-5.31135531 -6.51242063 -5.43137255
-5.12820513 -6.51242063 -5.47058824
-4.94505495 -6.51242063 -5.54901961
-4.76190476 -6.51242063 -5.58823529
-4.57875458 -6.51242063 -5.43137255
-4.3956044 -6.51242063 -5.50980392
-4.21245421 -6.51242063 -5.58823529
-4.02930403 -6.51242063 -5.66666667
-3.84615385 -6.51242063 -5.94117647
-3.66300366 -6.51242063 -6.21568627
-3.47985348 -6.51242063 -6.09803922
-3.2967033 -6.51242063 -6.17647059
-3.11355311 -6.51242063 -6.21568627
-2.93040293 -6.51242063 -6.29411765
-2.74725275 -6.51242063 -6.64705882
-2.56410256 -6.51242063 -6.80392157
-2.38095238 -6.51242063 -6.96078431
-2.1978022 -6.51242063 -7.19607843
-2.01465201 -6.51242063 -7.39215686
-1.83150183 -6.51242063 -7.54901961
-1.64835165 -6.51242063 -7.58823529
-1.46520147 -6.51242063 -7.39215686
-1.28205128 -6.51242063 -7.58823529
-1.0989011 -6.51242063 -7.54901961
-0.91575092 -6.51242063 -7.70588235
-0.73260073 -6.51242063 -7.74509804
-0.54945055 -6.51242063 -7.43137255
-0.36630037 -6.51242063 -7.43137255
-0.18315018 -6.51242063 -7.70588235
0 -6.51242063 -7.98039216
0.18315018 -6.51242063 -7.82352941
0.36630037 -6.51242063 -7.70588235
0.54945055 -6.51242063 -7.82352941
0.73260073 -6.51242063 -8.17647059
0.91575092 -6.51242063 -8.25490196
1.0989011 -6.51242063 -8.49019608
1.28205128 -6.51242063 -8.29411765
1.46520147 -6.51242063 -8.52941176
1.64835165 -6.51242063 -8.92156863
1.83150183 -6.51242063 -9.03921569
2.01465201 -6.51242063 -9.54901961
2.1978022 -6.51242063 -9.03921569
2.38095238 -6.51242063 -8.96078431
2.56410256 -6.51242063 -9.58823529
2.74725275 -6.51242063 -9.11764706
2.93040293 -6.51242063 -9.62745098
3.11355311 -6.51242063 -10.76470588
3.2967033 -6.51242063 -11.19607843
3.47985348 -6.51242063 -10.60784314
3.66300366 -6.51242063 -10.41176471
3.84615385 -6.51242063 -10.96078431
4.02930403 -6.51242063 -11
4.21245421 -6.51242063 -11.15686275
4.3956044 -6.51242063 -10.68627451
4.57875458 -6.51242063 -10.25490196
4.76190476 -6.51242063 -9.94117647
4.94505495 -6.51242063 -9.82352941
5.12820513 -6.51242063 -9.90196078
5.31135531 -6.51242063 -10.25490196
5.49450549 -6.51242063 -10.33333333
5.67765568 -6.51242063 -9.54901961
5.86080586 -6.51242063 -9.2745098
6.04395604 -6.51242063 -8.92156863
6.22710623 -6.51242063 -9.15686275
6.41025641 -6.51242063 -9.70588235
6.59340659 -6.51242063 -9.98039216
6.77655678 -6.51242063 -9.82352941
6.95970696 -6.51242063 -9.62745098
7.14285714 -6.51242063 -9.23529412
7.32600733 -6.51242063 -9.50980392
7.50915751 -6.51242063 -9.19607843
7.69230769 -6.51242063 -8.88235294
7.87545788 -6.51242063 -9
8.05860806 -6.51242063 -9.03921569
8.24175824 -6.51242063 -9.54901961
8.42490842 -6.51242063 -9.54901961
8.60805861 -6.51242063 -9.35294118
8.79120879 -6.51242063 -9.50980392
8.97435897 -6.51242063 -9.31372549
9.15750916 -6.51242063 -8.80392157
9.34065934 -6.51242063 -7.94117647
9.52380952 -6.51242063 -7.98039216
9.70695971 -6.51242063 -8.21568627
9.89010989 -6.51242063 -8.41176471
10.07326007 -6.51242063 -8.52941176
10.25641026 -6.51242063 -8.52941176
10.43956044 -6.51242063 -8.37254902
10.62271062 -6.51242063 -8.45098039
10.80586081 -6.51242063 -8.52941176
10.98901099 -6.51242063 -8.45098039
11.17216117 -6.51242063 -8.29411765
11.35531136 -6.51242063 -8.45098039
11.53846154 -6.51242063 -8.76470588
11.72161172 -6.51242063 -9.50980392
11.9047619 -6.51242063 -9.98039216
12.08791209 -6.51242063 -10.56862745
12.27106227 -6.51242063 -11.03921569
12.45421245 -6.51242063 -11.50980392
12.63736264 -6.51242063 -11.90196078
12.82051282 -6.51242063 -12.21568627
13.003663 -6.51242063 -12.56862745
13.18681319 -6.51242063 -13
13.36996337 -6.51242063 -13.19607843
13.55311355 -6.51242063 -13.2745098
13.73626374 -6.51242063 -13.31372549
13.91941392 -6.51242063 -13.43137255
14.1025641 -6.51242063 -13.47058824
14.28571429 -6.51242063 -13.50980392
14.46886447 -6.51242063 -13.58823529
14.65201465 -6.51242063 -13.66666667
14.83516484 -6.51242063 -13.70588235
15.01831502 -6.51242063 -13.78431373
15.2014652 -6.51242063 -13.74509804
15.38461538 -6.51242063 -13.74509804
15.56776557 -6.51242063 -13.66666667
